ply
format ascii 1.0
element vertex 1328
property float x
property float y
property float z
property uchar red
property uchar green
property uchar blue
end_header
-0.5663 -0.1793  1.3316  49  68  56
-0.5685 -0.1793  1.3316  47  63  54
-0.5706 -0.1793  1.3316  42  58  49
-0.5728 -0.1793  1.3316  35  50  45
-0.5749 -0.1793  1.3316  31  46  41
-0.5771 -0.1793  1.3316  31  44  39
-0.5792 -0.1793  1.3316  32  45  40
 0.2443 -0.1952  1.4327  11  19  20
 0.2420 -0.1952  1.4327  11  19  20
 0.2398 -0.1953  1.4335  10  18  19
 0.2375 -0.1953  1.4335  11  19  20
 0.2354 -0.1955  1.4345  11  19  20
 0.2332 -0.1956  1.4355  11  19  20
 0.2310 -0.1957  1.4363  10  18  19
 0.2287 -0.1957  1.4363  10  18  19
 0.2266 -0.1959  1.4373  10  18  19
 0.2244 -0.1960  1.4386  10  18  19
 0.2223 -0.1962  1.4398  10  18  19
 0.2200 -0.1962  1.4398  10  18  19
 0.2178 -0.1964  1.4411  10  18  19
 0.2157 -0.1966  1.4426  10  18  19
 0.2137 -0.1969  1.4448  10  18  19
 0.2114 -0.1969  1.4448  10  18  19
 0.2094 -0.1972  1.4468  10  18  19
 0.2073 -0.1974  1.4487  11  19  20
 0.2053 -0.1977  1.4511  11  19  20
 0.2033 -0.1981  1.4536  11  19  20
 0.2010 -0.1981  1.4536  11  19  20
 0.1989 -0.1984  1.4561  11  19  20
 0.1969 -0.1988  1.4585  11  19  20
 0.1949 -0.1991  1.4608  11  19  20
 0.1925 -0.1991  1.4608  11  19  20
 0.1904 -0.1993  1.4627  11  19  20
 0.1882 -0.1995  1.4642  12  20  21
 0.1860 -0.1997  1.4656  12  20  21
 0.1837 -0.1997  1.4656  12  20  21
 0.1815 -0.1999  1.4670  12  20  21
 0.1793 -0.2001  1.4682  13  21  22
 0.1770 -0.2002  1.4692  12  20  21
 0.1748 -0.2004  1.4703  13  21  22
 0.1724 -0.2004  1.4703  13  21  22
-0.5598 -0.1814  1.3315  55  74  62
-0.5620 -0.1814  1.3315  52  71  59
-0.5641 -0.1814  1.3315  52  71  59
-0.5663 -0.1815  1.3316  50  69  57
-0.5685 -0.1815  1.3316  48  67  57
-0.5706 -0.1815  1.3316  42  61  51
-0.5728 -0.1815  1.3316  37  52  47
-0.5749 -0.1815  1.3316  31  46  41
-0.5771 -0.1815  1.3316  28  43  40
-0.5792 -0.1815  1.3316  29  44  41
 0.2443 -0.1976  1.4327  11  19  20
 0.2418 -0.1973  1.4311  11  19  20
 0.2394 -0.1973  1.4311  10  18  19
 0.2371 -0.1973  1.4311  11  19  20
 0.2349 -0.1974  1.4318  11  19  20
 0.2328 -0.1976  1.4328  10  18  19
 0.2306 -0.1977  1.4338  10  18  19
 0.2283 -0.1977  1.4338  10  18  19
 0.2262 -0.1979  1.4348  10  18  19
 0.2241 -0.1980  1.4362  10  18  19
 0.2220 -0.1982  1.4376  10  18  19
 0.2196 -0.1982  1.4376  10  18  19
 0.2175 -0.1984  1.4388  10  18  19
 0.2155 -0.1987  1.4408  10  18  19
 0.2134 -0.1990  1.4428  10  18  19
 0.2111 -0.1990  1.4428  10  18  19
 0.2091 -0.1992  1.4448  10  18  19
 0.2071 -0.1995  1.4471  11  19  20
 0.2051 -0.1999  1.4500  11  19  20
 0.2031 -0.2003  1.4523  11  19  20
 0.2008 -0.2003  1.4523  11  19  20
 0.1988 -0.2006  1.4551  11  19  20
 0.1968 -0.2010  1.4578  11  19  20
 0.1948 -0.2014  1.4603  11  19  20
 0.1925 -0.2014  1.4603  11  19  20
 0.1904 -0.2016  1.4623  11  19  20
 0.1882 -0.2018  1.4638  12  20  21
 0.1860 -0.2020  1.4652  12  20  21
 0.1836 -0.2020  1.4652  12  20  21
 0.1815 -0.2022  1.4667  12  20  21
 0.1792 -0.2024  1.4680  12  20  21
 0.1770 -0.2026  1.4690  12  20  21
 0.1748 -0.2027  1.4703  12  20  21
 0.1724 -0.2027  1.4703  13  21  22
-0.5642 -0.1836  1.3316  52  71  59
-0.5663 -0.1836  1.3316  50  69  57
-0.5685 -0.1836  1.3316  47  66  56
-0.5706 -0.1836  1.3316  43  62  52
-0.5728 -0.1836  1.3316  37  52  47
-0.5749 -0.1836  1.3316  31  46  41
 0.2418 -0.1996  1.4311  11  19  20
 0.2394 -0.1996  1.4311  10  18  19
 0.2371 -0.1996  1.4311  11  19  20
 0.2349 -0.1997  1.4318  11  19  20
 0.2328 -0.1999  1.4328  10  18  19
 0.2306 -0.2000  1.4338  10  18  19
 0.2283 -0.2000  1.4338  10  18  19
 0.2260 -0.2000  1.4340  10  18  19
 0.2237 -0.2000  1.4340  10  18  19
 0.2216 -0.2003  1.4355  10  18  19
 0.2193 -0.2003  1.4355  10  18  19
 0.2173 -0.2005  1.4372  10  18  19
 0.2152 -0.2007  1.4390  10  18  19
 0.2132 -0.2010  1.4408  10  18  19
 0.2108 -0.2010  1.4408  10  18  19
 0.2088 -0.2013  1.4432  10  18  19
 0.2069 -0.2017  1.4456  11  19  20
 0.2049 -0.2021  1.4483  11  19  20
 0.2030 -0.2025  1.4512  11  19  20
 0.2006 -0.2025  1.4512  11  19  20
 0.1987 -0.2029  1.4543  11  19  20
 0.1968 -0.2033  1.4572  11  19  20
 0.1948 -0.2037  1.4601  11  19  20
 0.1924 -0.2037  1.4601  11  19  20
 0.1903 -0.2040  1.4621  11  19  20
 0.1882 -0.2042  1.4636  12  20  21
 0.1860 -0.2044  1.4650  12  20  21
 0.1836 -0.2044  1.4650  11  19  20
 0.1814 -0.2046  1.4663  12  20  21
 0.1792 -0.2048  1.4680  12  20  21
 0.1770 -0.2049  1.4690  12  20  21
 0.1748 -0.2051  1.4703  12  20  21
 0.1724 -0.2051  1.4703  13  21  22
-0.5663 -0.1858  1.3316  49  68  56
-0.5685 -0.1858  1.3316  46  65  55
-0.5706 -0.1858  1.3316  41  60  50
-0.5728 -0.1858  1.3316  37  52  47
 0.2413 -0.2016  1.4285  11  19  20
 0.2390 -0.2016  1.4285  10  18  19
 0.2367 -0.2016  1.4285  11  19  20
 0.2346 -0.2017  1.4296  11  19  20
 0.2324 -0.2019  1.4306  10  18  19
 0.2303 -0.2020  1.4315  10  18  19
 0.2279 -0.2020  1.4315  10  18  19
 0.2258 -0.2022  1.4326  10  18  19
 0.2237 -0.2024  1.4340  10  18  19
 0.2216 -0.2026  1.4355  10  18  19
 0.2193 -0.2026  1.4355  10  18  19
 0.2173 -0.2028  1.4372  10  18  19
 0.2152 -0.2031  1.4390  10  18  19
 0.2132 -0.2033  1.4408  10  18  19
 0.2108 -0.2033  1.4408  10  18  19
 0.2088 -0.2037  1.4432  11  19  20
 0.2069 -0.2040  1.4456  11  19  20
 0.2049 -0.2044  1.4483  10  18  19
 0.2030 -0.2048  1.4512  11  19  20
 0.2006 -0.2048  1.4512  11  19  20
 0.1987 -0.2052  1.4543  11  19  20
 0.1968 -0.2056  1.4572  11  19  20
 0.1948 -0.2060  1.4601  11  19  20
 0.1924 -0.2060  1.4601  11  19  20
 0.1903 -0.2063  1.4621  11  19  20
 0.1882 -0.2065  1.4636  12  20  21
 0.1860 -0.2067  1.4650  12  20  21
 0.1836 -0.2067  1.4650  12  20  21
 0.1814 -0.2069  1.4663  12  20  21
-0.5663 -0.1879  1.3316  48  67  55
-0.5685 -0.1879  1.3316  43  62  52
-0.5706 -0.1879  1.3316  40  59  49
-0.5728 -0.1879  1.3316  36  54  48
 0.2410 -0.2036  1.4267  11  19  20
 0.2387 -0.2036  1.4267  10  18  19
 0.2364 -0.2036  1.4267  10  18  19
 0.2343 -0.2038  1.4280  10  18  19
 0.2321 -0.2039  1.4287  10  18  19
 0.2299 -0.2040  1.4295  10  18  19
 0.2276 -0.2040  1.4295  10  18  19
 0.2255 -0.2042  1.4306  10  18  19
 0.2234 -0.2044  1.4322  10  18  19
 0.2213 -0.2046  1.4336  10  18  19
 0.2190 -0.2046  1.4336  10  18  19
 0.2170 -0.2049  1.4353  10  18  19
 0.2149 -0.2051  1.4371  10  18  19
 0.2129 -0.2054  1.4390  10  18  19
 0.2106 -0.2054  1.4390  10  18  19
 0.2088 -0.2060  1.4432  11  19  20
 0.2069 -0.2063  1.4456  11  19  20
 0.2049 -0.2067  1.4483  11  19  20
 0.2030 -0.2071  1.4512  11  19  20
 0.2006 -0.2071  1.4512  11  19  20
 0.1987 -0.2076  1.4543  11  19  20
 0.1968 -0.2080  1.4572  11  19  20
 0.1947 -0.2084  1.4598  11  19  20
 0.1924 -0.2084  1.4598  11  19  20
 0.1903 -0.2086  1.4617  12  20  21
 0.1882 -0.2089  1.4636  12  20  21
 0.1860 -0.2091  1.4648  12  20  21
 0.1836 -0.2091  1.4648  12  20  21
 0.1814 -0.2093  1.4663  12  20  21
 0.2472 -0.2054  1.4227  11  19  20
 0.2449 -0.2054  1.4227  11  19  20
 0.2428 -0.2055  1.4236  11  19  20
 0.2407 -0.2056  1.4246  10  18  19
 0.2385 -0.2058  1.4255  10  18  19
 0.2362 -0.2058  1.4255  10  18  19
 0.2341 -0.2059  1.4266  10  18  19
 0.2319 -0.2060  1.4273  10  18  19
 0.2297 -0.2061  1.4281  10  18  19
 0.2274 -0.2061  1.4281  10  18  19
 0.2253 -0.2063  1.4292  10  18  19
 0.2232 -0.2065  1.4305  10  18  19
 0.2211 -0.2067  1.4318  10  18  19
 0.2188 -0.2067  1.4318  10  18  19
 0.2167 -0.2069  1.4335  10  18  19
 0.2146 -0.2072  1.4352  10  18  19
 0.2126 -0.2075  1.4373  10  18  19
 0.2103 -0.2075  1.4373  10  18  19
 0.1971 -0.2107  1.4598  12  20  21
 0.1947 -0.2107  1.4598  11  19  20
 0.1924 -0.2107  1.4598  11  19  20
 0.1903 -0.2110  1.4616  12  20  21
 0.1882 -0.2113  1.4636  12  20  21
 0.1860 -0.2114  1.4648  13  21  22
 0.1836 -0.2114  1.4648  12  20  21
 0.2472 -0.2077  1.4227  12  18  20
 0.2449 -0.2077  1.4227  12  18  20
 0.2428 -0.2078  1.4236  11  19  20
 0.2407 -0.2079  1.4246  11  19  20
 0.2385 -0.2081  1.4255  10  18  19
 0.2362 -0.2081  1.4255  10  18  19
 0.2339 -0.2081  1.4255  10  18  19
 0.2317 -0.2082  1.4263  10  18  19
 0.2296 -0.2083  1.4271  10  18  19
 0.2272 -0.2083  1.4271  10  18  19
 0.2251 -0.2084  1.4281  10  18  19
 0.2230 -0.2086  1.4291  10  18  19
 0.2208 -0.2088  1.4303  10  18  19
 0.2185 -0.2088  1.4303  10  18  19
 0.2164 -0.2090  1.4318  10  18  19
 0.2144 -0.2092  1.4333  11  19  20
 0.2126 -0.2098  1.4373  11  19  20
 0.2103 -0.2098  1.4373  10  18  19
 0.1926 -0.2133  1.4616  12  19  23
 0.1903 -0.2133  1.4616  13  20  24
 0.2470 -0.2098  1.4216  11  17  19
 0.2447 -0.2098  1.4216  12  18  20
 0.2426 -0.2100  1.4227  11  19  20
 0.2405 -0.2101  1.4236  11  19  20
 0.2384 -0.2102  1.4246  10  18  19
 0.2361 -0.2102  1.4246  10  18  19
 0.2339 -0.2104  1.4255  10  18  19
 0.2317 -0.2105  1.4263  10  18  19
 0.2296 -0.2106  1.4271  10  18  19
 0.2272 -0.2106  1.4271  10  18  19
 0.2251 -0.2108  1.4281  10  18  19
 0.2230 -0.2109  1.4291  11  19  20
 0.2208 -0.2111  1.4303  10  18  19
 0.2185 -0.2111  1.4303  10  18  19
 0.2164 -0.2113  1.4318  10  18  19
 0.2144 -0.2115  1.4333  11  19  20
 0.2469 -0.2119  1.4206  11  17  19
 0.2446 -0.2119  1.4206  12  18  20
 0.2425 -0.2121  1.4217  11  17  19
 0.2403 -0.2122  1.4226  11  17  19
 0.2382 -0.2124  1.4237  10  18  19
 0.2359 -0.2124  1.4237  10  18  19
 0.2338 -0.2125  1.4246  10  18  19
 0.2316 -0.2127  1.4255  10  18  19
 0.2294 -0.2128  1.4263  11  19  20
 0.2271 -0.2128  1.4263  11  19  20
 0.2250 -0.2129  1.4272  10  18  19
 0.2228 -0.2131  1.4281  11  19  20
 0.2207 -0.2132  1.4293  10  18  19
 0.2184 -0.2132  1.4293  11  19  20
 0.2163 -0.2134  1.4306  11  19  20
 0.2141 -0.2136  1.4318  11  19  20
 0.2467 -0.2141  1.4195  11  17  19
 0.2444 -0.2141  1.4195  12  18  20
 0.2423 -0.2143  1.4208  11  17  19
 0.2402 -0.2144  1.4218  11  17  19
 0.2381 -0.2146  1.4230  10  18  19
 0.2358 -0.2146  1.4230  10  18  19
 0.2336 -0.2147  1.4238  10  18  19
 0.2315 -0.2149  1.4248  10  18  19
 0.2293 -0.2150  1.4255  10  18  19
 0.2270 -0.2150  1.4255  10  18  19
 0.2248 -0.2151  1.4265  11  19  20
 0.2227 -0.2153  1.4276  11  19  20
 0.2206 -0.2155  1.4288  10  18  19
 0.2183 -0.2155  1.4288  11  19  20
 0.2162 -0.2157  1.4301  11  19  20
 0.2140 -0.2158  1.4310  11  19  20
 0.2467 -0.2164  1.4195  11  17  19
 0.2444 -0.2164  1.4195  11  17  19
 0.2422 -0.2164  1.4200  11  17  19
 0.2401 -0.2166  1.4212  11  17  19
 0.2379 -0.2168  1.4221  11  17  19
 0.2356 -0.2168  1.4221  11  17  19
 0.2336 -0.2170  1.4236  10  18  19
 0.2315 -0.2171  1.4246  10  18  19
 0.2293 -0.2173  1.4255  10  18  19
 0.2270 -0.2173  1.4255  10  18  19
 0.2248 -0.2174  1.4263  11  19  20
 0.2227 -0.2176  1.4275  11  19  20
 0.2205 -0.2177  1.4285  11  19  20
 0.2182 -0.2177  1.4285  11  19  20
 0.2161 -0.2179  1.4296  11  19  20
 0.2140 -0.2181  1.4308  11  19  20
 0.2120 -0.2184  1.4328  11  19  20
 0.2097 -0.2184  1.4328  12  20  21
 0.2465 -0.2185  1.4187  11  17  19
 0.2442 -0.2185  1.4187  11  17  19
 0.2422 -0.2187  1.4200  11  17  19
 0.2401 -0.2189  1.4212  11  17  19
 0.2379 -0.2191  1.4221  11  17  19
 0.2356 -0.2191  1.4221  11  17  19
 0.2336 -0.2193  1.4236  11  17  19
 0.2315 -0.2194  1.4246  11  17  19
 0.2293 -0.2196  1.4256  10  18  19
 0.2270 -0.2196  1.4256  10  18  19
 0.2248 -0.2197  1.4263  11  19  20
 0.2227 -0.2199  1.4275  11  19  20
 0.2205 -0.2200  1.4285  11  19  20
 0.2182 -0.2200  1.4285  11  19  20
 0.2161 -0.2202  1.4296  12  18  20
 0.2140 -0.2204  1.4308  12  18  20
 0.2120 -0.2207  1.4328  12  20  21
 0.2097 -0.2207  1.4328  12  20  21
 0.2465 -0.2208  1.4187  11  17  19
 0.2442 -0.2208  1.4187  11  17  19
 0.2422 -0.2210  1.4200  11  17  19
 0.2401 -0.2212  1.4212  11  17  19
 0.2379 -0.2213  1.4218  11  17  19
 0.2356 -0.2213  1.4218  11  17  19
 0.2335 -0.2215  1.4232   9  15  17
 0.2314 -0.2217  1.4245  11  17  19
 0.2293 -0.2219  1.4256  10  18  19
 0.2270 -0.2219  1.4256  10  18  19
 0.2248 -0.2220  1.4263  11  19  20
 0.2227 -0.2222  1.4275  11  19  20
 0.2205 -0.2223  1.4285  11  19  20
 0.2182 -0.2223  1.4285  11  19  20
 0.2161 -0.2225  1.4296  12  18  20
 0.2140 -0.2227  1.4308  12  18  20
 0.2120 -0.2230  1.4327  12  20  21
 0.2096 -0.2230  1.4327  12  20  21
 0.2076 -0.2233  1.4346  12  20  21
 0.2402 -0.2236  1.4218  11  17  19
 0.2379 -0.2236  1.4218  11  17  19
 0.2356 -0.2236  1.4218  11  17  19
 0.2335 -0.2238  1.4231   9  15  17
 0.2314 -0.2240  1.4245  11  17  19
 0.2293 -0.2242  1.4256  10  18  19
 0.2270 -0.2242  1.4256  10  18  19
 0.2249 -0.2244  1.4266  10  18  19
 0.2227 -0.2245  1.4276  11  19  20
 0.2206 -0.2247  1.4286  11  19  20
 0.2183 -0.2247  1.4286  11  19  20
 0.2162 -0.2249  1.4301  11  19  20
 0.2140 -0.2251  1.4311  11  19  20
 0.2120 -0.2253  1.4327  13  19  21
 0.2096 -0.2253  1.4327  13  19  21
 0.2076 -0.2256  1.4346  12  20  21
 0.2358 -0.2261  1.4231  11  17  19
 0.2335 -0.2261  1.4231  11  17  19
 0.2315 -0.2264  1.4247  11  17  19
 0.2294 -0.2265  1.4258  10  18  19
 0.2271 -0.2265  1.4258  10  18  19
 0.2249 -0.2267  1.4271  10  18  19
 0.2228 -0.2269  1.4283  11  19  20
 0.2207 -0.2271  1.4293  11  19  20
 0.2184 -0.2271  1.4293  11  19  20
 0.2162 -0.2273  1.4305  11  19  20
 0.2141 -0.2274  1.4315  11  19  20
 0.2120 -0.2276  1.4327  12  20  21
 0.2096 -0.2276  1.4327  11  19  20
 0.2076 -0.2280  1.4348  11  19  20
 0.2338 -0.2287  1.4251  11  17  19
 0.2315 -0.2287  1.4251  11  17  19
 0.2295 -0.2290  1.4267  10  18  19
 0.2272 -0.2290  1.4267  10  18  19
 0.2251 -0.2292  1.4281  10  18  19
 0.2230 -0.2294  1.4293  11  19  20
 0.2208 -0.2296  1.4303  10  18  19
 0.2185 -0.2296  1.4303  11  19  20
 0.2164 -0.2297  1.4313  11  19  20
 0.2142 -0.2299  1.4323  11  19  20
 0.2121 -0.2301  1.4336  11  19  20
 0.2098 -0.2301  1.4336  11  19  20
 0.2077 -0.2303  1.4352  11  19  20
 0.2338 -0.2310  1.4251  11  17  19
 0.2315 -0.2310  1.4251  11  17  19
 0.2295 -0.2313  1.4267  10  18  19
 0.2272 -0.2313  1.4267  10  18  19
 0.2251 -0.2315  1.4281  10  18  19
 0.2230 -0.2317  1.4293  11  19  20
 0.2208 -0.2319  1.4303  10  18  19
 0.2185 -0.2319  1.4303  11  19  20
 0.2164 -0.2320  1.4313  10  18  19
 0.2142 -0.2322  1.4323  11  19  20
 0.2121 -0.2324  1.4336  11  19  20
 0.2098 -0.2324  1.4336  11  19  20
 0.2077 -0.2327  1.4352  11  19  20
 0.1763 -0.2340  1.4436  12  20  21
 0.1739 -0.2340  1.4436  12  20  21
 0.1716 -0.2340  1.4436  12  20  21
 0.2276 -0.2340  1.4293  11  17  19
 0.2253 -0.2340  1.4293  10  18  19
 0.2231 -0.2342  1.4302  11  19  20
 0.2210 -0.2343  1.4312  10  18  19
 0.2187 -0.2343  1.4312  11  19  20
 0.2165 -0.2345  1.4321  10  18  19
 0.1786 -0.2364  1.4436  12  20  21
 0.1763 -0.2364  1.4436  12  18  20
 0.1739 -0.2364  1.4436  13  19  21
 0.1716 -0.2364  1.4436  12  20  21
 0.1693 -0.2364  1.4436  11  19  20
 0.2174 -0.2378  1.4381  10  18  19
 0.2151 -0.2378  1.4381  10  18  19
 0.2129 -0.2379  1.4391  10  18  19
 0.2108 -0.2381  1.4403  10  18  19
 0.2084 -0.2381  1.4403  10  18  19
 0.2063 -0.2383  1.4415  11  19  20
 0.1786 -0.2387  1.4436  11  19  20
 0.1763 -0.2387  1.4436  11  19  20
 0.1739 -0.2387  1.4436  11  19  20
 0.1716 -0.2387  1.4436  11  19  20
 0.1693 -0.2387  1.4436  11  19  20
 0.2174 -0.2401  1.4381  10  18  19
 0.2151 -0.2401  1.4381  10  18  19
 0.2129 -0.2403  1.4391  10  18  19
 0.2108 -0.2405  1.4403  10  18  19
 0.2084 -0.2405  1.4403  11  17  19
 0.2063 -0.2407  1.4415  11  17  19
 0.1786 -0.2410  1.4436  11  19  20
 0.1763 -0.2410  1.4436  10  18  19
 0.1739 -0.2410  1.4436  11  19  20
 0.1716 -0.2410  1.4436  11  19  20
 0.1693 -0.2410  1.4436  10  18  19
 0.2174 -0.2424  1.4381   8  16  17
 0.2151 -0.2424  1.4381  10  18  19
 0.2129 -0.2426  1.4391  10  18  19
 0.2108 -0.2428  1.4403  10  18  19
 0.2084 -0.2428  1.4403  11  17  19
 0.2063 -0.2430  1.4415  11  17  19
 0.1786 -0.2433  1.4436  10  18  19
 0.1763 -0.2433  1.4436  10  18  19
 0.1739 -0.2433  1.4436  10  18  19
 0.1716 -0.2433  1.4436  10  18  19
 0.1693 -0.2433  1.4436  10  18  19
 0.2177 -0.2451  1.4401   8  16  17
 0.2154 -0.2451  1.4401  10  18  19
 0.2132 -0.2453  1.4413   8  16  17
 0.2110 -0.2455  1.4423  10  18  19
 0.2087 -0.2455  1.4423  11  17  19
 0.2065 -0.2456  1.4433  11  17  19
 0.1786 -0.2457  1.4436  10  18  19
 0.1763 -0.2457  1.4436  10  18  19
 0.1739 -0.2457  1.4436  10  18  19
 0.1716 -0.2457  1.4436  10  18  19
 0.1693 -0.2457  1.4436  10  18  19
 0.2180 -0.2478  1.4423   8  16  17
 0.2157 -0.2478  1.4423   8  16  17
 0.2135 -0.2479  1.4432   8  16  17
 0.2113 -0.2481  1.4441  10  18  19
 0.2090 -0.2481  1.4441  11  17  19
 0.2068 -0.2483  1.4451   9  15  17
 0.2162 -0.2507  1.4458   9  15  17
 0.2139 -0.2507  1.4458   9  15  17
 0.2117 -0.2509  1.4466  11  17  19
 0.2093 -0.2509  1.4466  11  17  19
 0.2071 -0.2510  1.4473   9  15  17
 0.2162 -0.2531  1.4458   9  15  17
 0.2139 -0.2531  1.4458   9  15  17
 0.2117 -0.2532  1.4466  11  17  19
 0.2093 -0.2532  1.4466  11  17  19
 0.2071 -0.2533  1.4473   9  15  17
-0.2966 -0.1933  1.1041 204 147  45
-0.2984 -0.1933  1.1041 199 142  40
-0.3006 -0.1935  1.1055 204 148  43
-0.3028 -0.1938  1.1070 205 149  44
-0.3046 -0.1938  1.1070 205 146  40
-0.3067 -0.1940  1.1084 207 148  42
-0.3088 -0.1942  1.1095 208 149  43
-0.3109 -0.1943  1.1104 206 147  41
-0.3127 -0.1943  1.1104 202 145  45
-0.3146 -0.1944  1.1109 201 144  44
-0.3167 -0.1946  1.1119 201 143  50
-0.3188 -0.1948  1.1129 199 141  48
-0.3206 -0.1948  1.1129 198 138  39
 0.2144 -0.2561  1.4496   9  15  17
 0.2121 -0.2561  1.4496   9  15  17
 0.2098 -0.2561  1.4496   9  15  17
-0.2931 -0.1951  1.1044 194 136  41
-0.2949 -0.1951  1.1044 194 136  41
-0.2965 -0.1949  1.1036 195 138  38
-0.2983 -0.1949  1.1036 196 139  39
-0.3005 -0.1952  1.1053 197 140  38
-0.3027 -0.1955  1.1069 197 140  38
-0.3045 -0.1955  1.1069 198 139  33
-0.3067 -0.1958  1.1084 199 140  34
-0.3088 -0.1960  1.1095 197 138  32
-0.3109 -0.1961  1.1104 197 138  32
-0.3127 -0.1961  1.1104 197 138  32
-0.3146 -0.1962  1.1109 200 141  35
-0.3167 -0.1964  1.1119 200 141  37
-0.3188 -0.1966  1.1129 199 140  36
-0.3206 -0.1966  1.1129 196 137  33
-0.2931 -0.1969  1.1044 185 127  30
-0.2949 -0.1969  1.1044 190 132  35
-0.2965 -0.1967  1.1036 191 133  36
-0.2983 -0.1967  1.1036 194 136  39
-0.3005 -0.1970  1.1053 194 137  35
-0.3027 -0.1973  1.1069 195 138  36
-0.3045 -0.1973  1.1069 194 138  33
-0.3068 -0.1976  1.1086 192 136  31
-0.3089 -0.1978  1.1099 192 136  31
-0.3109 -0.1980  1.1105 191 135  30
-0.3127 -0.1980  1.1105 194 135  31
-0.3148 -0.1981  1.1115 196 137  33
-0.3168 -0.1983  1.1123 196 137  33
-0.3188 -0.1984  1.1129 196 137  33
-0.3206 -0.1984  1.1129 193 134  28
-0.3229 -0.1987  1.1146 192 133  27
-0.2870 -0.1993  1.1083 175 120  29
-0.2888 -0.1993  1.1083 177 122  31
-0.2906 -0.1993  1.1083 180 123  28
-0.2918 -0.1989  1.1059 181 124  29
-0.2931 -0.1986  1.1044 182 125  28
-0.2949 -0.1986  1.1044 187 130  33
-0.2965 -0.1985  1.1036 188 131  34
-0.2983 -0.1985  1.1036 190 133  36
-0.3005 -0.1988  1.1051 191 135  33
-0.3027 -0.1991  1.1069 190 134  32
-0.3045 -0.1991  1.1069 190 134  32
-0.3068 -0.1994  1.1086 190 134  32
-0.3089 -0.1996  1.1099 191 134  32
-0.3109 -0.1998  1.1105 189 132  30
-0.3127 -0.1998  1.1105 192 133  29
-0.3148 -0.1999  1.1115 192 133  29
-0.3168 -0.2001  1.1123 193 134  28
-0.3189 -0.2003  1.1135 193 134  28
-0.3207 -0.2003  1.1135 192 133  27
-0.3229 -0.2005  1.1146 191 132  26
-0.2855 -0.2013  1.1091 160 126  66
-0.2869 -0.2011  1.1080 171 121  30
-0.2887 -0.2011  1.1080 174 124  33
-0.2905 -0.2011  1.1080 175 124  27
-0.2918 -0.2007  1.1059 177 126  29
-0.2932 -0.2005  1.1045 180 126  28
-0.2950 -0.2005  1.1045 184 130  32
-0.2967 -0.2004  1.1044 186 132  34
-0.2985 -0.2004  1.1044 187 133  35
-0.3003 -0.2005  1.1045 189 133  31
-0.3027 -0.2009  1.1068 189 133  31
-0.3045 -0.2009  1.1068 189 133  31
-0.3068 -0.2012  1.1088 189 133  31
-0.3090 -0.2015  1.1101 190 133  31
-0.3110 -0.2016  1.1109 189 132  30
-0.3128 -0.2016  1.1109 190 130  29
-0.3149 -0.2018  1.1120 192 132  31
-0.3170 -0.2020  1.1129 193 134  30
-0.3192 -0.2022  1.1143 192 133  29
-0.3210 -0.2022  1.1143 191 132  26
-0.3231 -0.2025  1.1155 191 132  26
-0.2855 -0.2031  1.1091 153 122  68
-0.2869 -0.2028  1.1078 168 122  32
-0.2887 -0.2028  1.1078 171 125  35
-0.2905 -0.2028  1.1078 175 124  27
-0.2915 -0.2023  1.1050 177 126  29
-0.2928 -0.2020  1.1030 177 126  27
-0.2946 -0.2020  1.1030 180 129  30
-0.2959 -0.2017  1.1014 185 131  33
-0.2977 -0.2017  1.1014 186 132  34
-0.3002 -0.2022  1.1041 188 132  30
-0.3027 -0.2026  1.1066 187 131  29
-0.3045 -0.2026  1.1066 189 132  30
-0.3069 -0.2030  1.1089 188 131  29
-0.3092 -0.2034  1.1106 188 132  27
-0.3113 -0.2036  1.1119 188 132  27
-0.3131 -0.2036  1.1119 188 132  27
-0.3151 -0.2037  1.1126 189 133  28
-0.3172 -0.2039  1.1138 189 133  28
-0.3193 -0.2041  1.1149 189 133  28
-0.3211 -0.2041  1.1149 188 132  27
-0.3233 -0.2044  1.1163 187 131  26
-0.2869 -0.2046  1.1078 166 122  32
-0.2887 -0.2046  1.1078 169 125  35
-0.2905 -0.2046  1.1078 174 125  27
-0.2915 -0.2041  1.1050 175 126  28
-0.2928 -0.2037  1.1030 176 125  26
-0.2946 -0.2037  1.1030 178 127  28
-0.2959 -0.2034  1.1014 182 129  28
-0.2977 -0.2034  1.1014 182 129  28
-0.3002 -0.2040  1.1041 184 128  28
-0.3027 -0.2044  1.1066 183 127  27
-0.3045 -0.2044  1.1066 185 129  24
-0.3070 -0.2049  1.1093 185 129  24
-0.3093 -0.2052  1.1111 185 129  24
-0.3114 -0.2055  1.1124 185 129  24
-0.3132 -0.2055  1.1124 185 129  24
-0.3153 -0.2057  1.1134 185 129  24
-0.3174 -0.2058  1.1144 188 132  27
-0.3193 -0.2059  1.1149 185 129  24
-0.3211 -0.2059  1.1149 185 129  24
-0.3233 -0.2062  1.1163 184 128  23
-0.2869 -0.2064  1.1078 164 123  32
-0.2887 -0.2064  1.1078 165 124  33
-0.2905 -0.2064  1.1078 174 125  27
-0.2915 -0.2059  1.1050 175 126  28
-0.2923 -0.2052  1.1014 176 125  26
-0.2941 -0.2052  1.1014 178 127  28
-0.2959 -0.2052  1.1014 183 127  27
-0.2977 -0.2052  1.1014 184 128  28
-0.3002 -0.2057  1.1041 184 128  26
-0.3027 -0.2062  1.1066 184 128  26
-0.3045 -0.2062  1.1066 184 128  23
-0.3070 -0.2067  1.1093 185 129  24
-0.3093 -0.2070  1.1111 185 129  24
-0.3114 -0.2073  1.1124 185 129  24
-0.3132 -0.2073  1.1124 185 129  24
-0.3153 -0.2075  1.1134 187 131  26
-0.3174 -0.2076  1.1144 188 132  27
-0.3195 -0.2079  1.1156 187 131  26
-0.3214 -0.2079  1.1156 187 131  26
-0.3235 -0.2081  1.1168 185 129  24
-0.3258 -0.2084  1.1186 187 131  26
-0.2923 -0.2070  1.1014 176 125  26
-0.2941 -0.2070  1.1014 178 127  28
-0.2959 -0.2070  1.1014 183 127  27
-0.2977 -0.2070  1.1014 184 128  28
-0.3002 -0.2075  1.1041 184 128  26
-0.3027 -0.2080  1.1068 184 128  26
-0.3045 -0.2080  1.1068 185 129  24
-0.3070 -0.2085  1.1095 185 129  24
-0.3094 -0.2089  1.1116 185 129  24
-0.3116 -0.2092  1.1131 185 129  24
-0.3134 -0.2092  1.1131 185 129  24
-0.3155 -0.2094  1.1141 185 129  24
-0.3176 -0.2096  1.1151 187 131  26
-0.3197 -0.2098  1.1161 187 131  26
-0.3215 -0.2098  1.1161 187 131  26
-0.3236 -0.2100  1.1171 185 129  24
-0.3258 -0.2102  1.1186 187 131  26
-0.3280 -0.2105  1.1200 188 132  27
-0.3298 -0.2105  1.1200 187 131  26
-0.3318 -0.2106  1.1204 184 128  23
-0.2924 -0.2088  1.1016 176 125  26
-0.2942 -0.2088  1.1016 177 126  27
-0.2960 -0.2088  1.1016 183 127  27
-0.2978 -0.2088  1.1016 184 128  28
-0.3003 -0.2094  1.1045 184 128  28
-0.3023 -0.2095  1.1051 184 128  28
-0.3046 -0.2098  1.1070 184 128  26
-0.3072 -0.2104  1.1100 184 128  26
-0.3096 -0.2109  1.1124 185 129  24
-0.3119 -0.2111  1.1139 185 129  24
-0.3137 -0.2111  1.1139 184 128  23
-0.3157 -0.2113  1.1148 185 129  24
-0.3177 -0.2115  1.1156 187 131  26
-0.3198 -0.2117  1.1166 187 131  26
-0.3216 -0.2117  1.1166 187 131  26
-0.3237 -0.2118  1.1174 185 129  24
-0.3259 -0.2121  1.1189 185 129  24
-0.3280 -0.2123  1.1200 187 131  26
-0.3298 -0.2123  1.1200 185 129  24
-0.3318 -0.2124  1.1204 184 128  23
-0.0950 -0.2233  1.1680 123 130 138
-0.0969 -0.2233  1.1679 113 120 128
-0.0988 -0.2233  1.1679 126 133 141
-0.2925 -0.2107  1.1019 175 125  23
-0.2943 -0.2107  1.1019 177 127  25
-0.2960 -0.2107  1.1019 183 127  27
-0.2984 -0.2111  1.1041 184 128  28
-0.3005 -0.2113  1.1051 184 128  28
-0.3023 -0.2113  1.1051 184 128  28
-0.3048 -0.2118  1.1078 186 130  28
-0.3073 -0.2123  1.1105 184 128  26
-0.3098 -0.2128  1.1129 185 128  26
-0.3120 -0.2131  1.1145 184 127  25
-0.3138 -0.2131  1.1145 184 128  23
-0.3159 -0.2132  1.1154 184 128  23
-0.3177 -0.2133  1.1156 184 128  23
-0.3198 -0.2135  1.1166 185 129  24
-0.3216 -0.2135  1.1166 185 129  24
-0.3237 -0.2136  1.1174 185 129  24
-0.3259 -0.2139  1.1189 185 129  24
-0.3280 -0.2141  1.1200 185 129  24
-0.3298 -0.2141  1.1200 185 128  26
-0.3318 -0.2142  1.1204 184 127  25
-0.0400 -0.2233  1.1585 129 134 139
-0.0419 -0.2233  1.1585 135 140 145
-0.0438 -0.2235  1.1595 135 140 145
-0.0457 -0.2235  1.1595 135 140 145
-0.0476 -0.2237  1.1605 135 140 145
-0.0495 -0.2239  1.1614 130 137 143
-0.0514 -0.2240  1.1620 117 124 130
-0.0533 -0.2240  1.1620 136 136 138
-0.0552 -0.2241  1.1624 138 138 140
-0.0570 -0.2242  1.1628 112  94 100
-0.0589 -0.2242  1.1631 136 118 124
-0.0608 -0.2242  1.1631 140 119 126
-0.0627 -0.2244  1.1640 130 109 116
-0.0647 -0.2246  1.1648 150 129 136
-0.0931 -0.2252  1.1680 141 148 156
-0.0950 -0.2252  1.1679 107 113 124
-0.0969 -0.2252  1.1679 113 119 130
-0.0988 -0.2252  1.1679  89  95 106
-0.1007 -0.2252  1.1679 153 159 170
-0.1026 -0.2252  1.1679 146 155 165
-0.1101 -0.2251  1.1678  94 103 113
-0.1120 -0.2251  1.1678 154 163 173
-0.2925 -0.2124  1.1019 176 126  24
-0.2943 -0.2124  1.1019 177 127  25
-0.2960 -0.2124  1.1019 181 128  27
-0.2984 -0.2129  1.1041 182 129  28
-0.3005 -0.2131  1.1051 184 128  28
-0.3023 -0.2131  1.1051 184 128  28
-0.3048 -0.2136  1.1078 184 128  28
-0.3073 -0.2141  1.1105 184 128  28
-0.3098 -0.2146  1.1129 184 127  25
-0.3120 -0.2149  1.1145 183 126  24
-0.3138 -0.2149  1.1145 184 127  25
-0.3159 -0.2150  1.1154 183 126  24
-0.3179 -0.2152  1.1161 184 128  23
-0.3200 -0.2154  1.1171 184 128  23
-0.3218 -0.2154  1.1171 184 128  23
-0.3238 -0.2155  1.1178 184 128  23
-0.3260 -0.2158  1.1193 184 127  25
-0.3279 -0.2159  1.1196 185 128  26
-0.3299 -0.2160  1.1203 184 127  25
-0.3318 -0.2160  1.1206 183 126  24
-0.0044 -0.2233  1.1485 128 133 138
-0.0063 -0.2232  1.1480 125 130 135
-0.0081 -0.2231  1.1478 129 134 139
-0.0100 -0.2231  1.1478 134 139 144
-0.0118 -0.2231  1.1476 134 139 144
-0.0137 -0.2231  1.1476 136 141 146
-0.0155 -0.2232  1.1479 121 131 138
-0.0174 -0.2232  1.1481 108 118 125
-0.0193 -0.2232  1.1481 126 136 143
-0.0381 -0.2250  1.1574  98 103 110
-0.0400 -0.2250  1.1574 103 108 115
-0.0419 -0.2252  1.1584 107 112 117
-0.0438 -0.2254  1.1595 145 150 155
-0.0457 -0.2254  1.1595 141 148 152
-0.0476 -0.2256  1.1605 142 149 153
-0.0495 -0.2258  1.1614  85  92 100
-0.0514 -0.2259  1.1620 116 123 131
-0.0533 -0.2259  1.1620  98  97 101
-0.0552 -0.2260  1.1624 143 142 146
-0.0570 -0.2260  1.1628 116  88  97
-0.0589 -0.2261  1.1631 138 110 119
-0.0608 -0.2261  1.1631 153 132 139
-0.0627 -0.2263  1.1640 144 123 130
-0.0647 -0.2264  1.1648 137 116 123
-0.0666 -0.2266  1.1656 153 132 139
-0.0685 -0.2267  1.1664 108  92  99
-0.0704 -0.2267  1.1664 165 149 156
-0.0723 -0.2269  1.1671 133 135 143
-0.0931 -0.2270  1.1679 153 163 170
-0.0950 -0.2270  1.1679 145 155 162
-0.0969 -0.2270  1.1679 117 127 134
-0.0988 -0.2270  1.1678  86  95 105
-0.1007 -0.2270  1.1678 158 167 177
-0.1025 -0.2270  1.1678 154 163 173
-0.1101 -0.2270  1.1678  87  98 109
-0.1120 -0.2270  1.1678 158 169 180
-0.2930 -0.2146  1.1039 178 128  26
-0.2948 -0.2146  1.1039 178 128  26
-0.2966 -0.2146  1.1039 181 128  25
-0.2987 -0.2148  1.1051 180 127  24
-0.3008 -0.2151  1.1064 182 129  26
-0.3026 -0.2151  1.1064 180 127  24
-0.3050 -0.2155  1.1088 183 127  25
-0.3075 -0.2160  1.1113 183 127  25
-0.3100 -0.2165  1.1135 182 126  24
-0.3122 -0.2168  1.1150 181 125  23
-0.3140 -0.2168  1.1150 182 126  24
-0.3160 -0.2169  1.1159 181 125  23
-0.3180 -0.2171  1.1166 181 125  23
-0.3200 -0.2172  1.1171 181 125  23
-0.3219 -0.2172  1.1174 180 124  22
-0.3239 -0.2174  1.1184 181 125  23
-0.3261 -0.2177  1.1196 181 125  25
-0.3279 -0.2177  1.1196 181 125  25
-0.3300 -0.2178  1.1204 180 123  26
-0.3319 -0.2179  1.1210 179 122  25
-0.0044 -0.2251  1.1485  85  92  98
-0.0063 -0.2250  1.1480 102 109 115
-0.0081 -0.2250  1.1478 118 123 130
-0.0100 -0.2250  1.1478 140 145 152
-0.0118 -0.2250  1.1476 139 146 152
-0.0137 -0.2250  1.1476 140 147 153
-0.0155 -0.2250  1.1479  86  92 103
-0.0174 -0.2251  1.1481 105 111 122
-0.0193 -0.2251  1.1481 115 124 134
-0.0381 -0.2269  1.1574  84  90 101
-0.0400 -0.2269  1.1574 104 110 121
-0.0419 -0.2271  1.1584  92  99 107
-0.0438 -0.2273  1.1595 154 161 169
-0.0457 -0.2273  1.1595 147 154 158
-0.0476 -0.2275  1.1605 148 155 159
-0.0495 -0.2277  1.1614  86  93  99
-0.0514 -0.2278  1.1620 125 132 138
-0.0533 -0.2278  1.1620  86  81  89
-0.0552 -0.2278  1.1624 147 142 150
-0.0570 -0.2279  1.1628 118  85  96
-0.0589 -0.2280  1.1631 136 103 114
-0.0608 -0.2280  1.1631 166 143 151
-0.0627 -0.2282  1.1640 157 134 142
-0.0647 -0.2283  1.1648 133 112 119
-0.0666 -0.2285  1.1656 168 147 154
-0.0685 -0.2286  1.1664 112  94 104
-0.0704 -0.2286  1.1664 178 160 170
-0.0723 -0.2288  1.1671 166 168 176
-0.0931 -0.2289  1.1679 160 170 177
-0.0950 -0.2289  1.1679 122 132 139
-0.0969 -0.2289  1.1679 128 138 145
-0.0988 -0.2289  1.1678  94 103 113
-0.1007 -0.2289  1.1678 157 166 176
-0.1025 -0.2289  1.1678 164 173 183
-0.2933 -0.2166  1.1051 177 126  29
-0.2951 -0.2166  1.1051 176 125  28
-0.2969 -0.2166  1.1051 176 125  26
-0.2990 -0.2168  1.1061 175 124  25
-0.3012 -0.2172  1.1079 178 124  26
-0.3030 -0.2172  1.1079 174 120  22
-0.3054 -0.2176  1.1100 177 123  25
-0.3078 -0.2180  1.1121 175 121  23
-0.3101 -0.2184  1.1141 177 123  25
-0.3121 -0.2185  1.1149 175 121  23
-0.3141 -0.2187  1.1155 174 120  24
-0.3161 -0.2188  1.1163 174 120  24
-0.3182 -0.2190  1.1171 173 119  23
-0.3200 -0.2190  1.1171 171 117  21
-0.3221 -0.2192  1.1181 172 118  20
-0.3242 -0.2194  1.1193 172 118  20
-0.3263 -0.2196  1.1201 172 118  24
-0.3281 -0.2196  1.1201 171 117  23
 0.0717 -0.2273  1.1501 119 133 137
 0.0699 -0.2273  1.1501 126 140 146
 0.0680 -0.2274  1.1506 123 137 143
 0.0662 -0.2274  1.1506 124 136 140
 0.0643 -0.2275  1.1511 125 137 141
 0.0625 -0.2276  1.1515 118 128 133
 0.0607 -0.2277  1.1519 121 131 136
 0.0588 -0.2277  1.1519 139 138 142
 0.0570 -0.2277  1.1520  99  98 102
 0.0551 -0.2277  1.1520 129 106 116
 0.0532 -0.2277  1.1520 138 115 125
 0.0514 -0.2277  1.1520 123 107 114
 0.0495 -0.2277  1.1520 129 113 120
 0.0477 -0.2277  1.1520 136 120 127
 0.0458 -0.2277  1.1521 105  89  96
 0.0439 -0.2277  1.1523 126 122 125
 0.0421 -0.2277  1.1523 140 136 139
 0.0402 -0.2278  1.1524 113 120 126
 0.0384 -0.2278  1.1525 102 109 115
 0.0365 -0.2278  1.1525 136 146 151
 0.0346 -0.2278  1.1525 135 145 150
 0.0328 -0.2278  1.1524 136 146 149
 0.0309 -0.2278  1.1524 123 133 136
 0.0291 -0.2278  1.1524  93 100 106
 0.0272 -0.2277  1.1523  96 103 109
 0.0253 -0.2277  1.1521 113 120 128
 0.0235 -0.2277  1.1520 139 146 154
 0.0216 -0.2277  1.1520 139 146 152
 0.0197 -0.2277  1.1519 132 139 145
 0.0179 -0.2277  1.1519 105 109 121
 0.0160 -0.2276  1.1516  99 103 115
 0.0142 -0.2276  1.1515 118 125 131
 0.0123 -0.2276  1.1515 145 152 158
 0.0104 -0.2275  1.1513 141 153 157
 0.0086 -0.2275  1.1509 144 156 160
 0.0067 -0.2275  1.1509 107 117 122
-0.0007 -0.2271  1.1490 145 155 160
-0.0026 -0.2271  1.1490 144 154 159
-0.0044 -0.2270  1.1485  86  93 101
-0.0063 -0.2269  1.1480 106 113 121
-0.0081 -0.2268  1.1475 118 125 133
-0.0100 -0.2268  1.1475 150 157 165
-0.0118 -0.2268  1.1475 147 154 162
-0.0137 -0.2268  1.1475 135 142 150
-0.0155 -0.2269  1.1479  78  84  95
-0.0174 -0.2269  1.1481 110 116 127
-0.0193 -0.2269  1.1481  98 107 119
-0.0211 -0.2270  1.1486 153 162 174
-0.0249 -0.2275  1.1510 151 161 168
-0.0267 -0.2275  1.1510 145 154 166
-0.0286 -0.2275  1.1510  93 102 114
-0.0305 -0.2277  1.1520 152 163 172
-0.0362 -0.2285  1.1561 156 168 172
-0.0381 -0.2285  1.1561  83  89 102
-0.0400 -0.2287  1.1574 120 126 139
-0.0419 -0.2289  1.1584  88  94 105
-0.0438 -0.2292  1.1595 162 168 179
-0.0457 -0.2292  1.1595 157 164 170
-0.0476 -0.2294  1.1605 157 164 170
-0.0495 -0.2295  1.1614 119 126 132
-0.0514 -0.2297  1.1620 112 119 125
-0.0533 -0.2297  1.1620  96  94 103
-0.0552 -0.2297  1.1624 154 152 161
-0.0570 -0.2298  1.1628 125  95 107
-0.0589 -0.2299  1.1631 158 128 140
-0.0608 -0.2299  1.1631 164 139 147
-0.0627 -0.2300  1.1640 164 139 147
-0.0647 -0.2302  1.1648 154 131 139
-0.0666 -0.2304  1.1656 176 153 161
-0.0685 -0.2305  1.1664 115  97 107
-0.0704 -0.2305  1.1664 183 165 175
-0.0723 -0.2307  1.1671 170 175 182
-0.0931 -0.2308  1.1679 168 178 185
-0.0950 -0.2308  1.1679 158 168 175
-0.0969 -0.2308  1.1678 143 153 160
-0.0988 -0.2308  1.1678 154 165 174
-0.1007 -0.2308  1.1678 165 176 185
-0.1025 -0.2308  1.1678 167 178 187
-0.2953 -0.2185  1.1058 163 112  24
-0.2971 -0.2185  1.1058 163 112  24
-0.2992 -0.2188  1.1071 163 112  24
-0.3015 -0.2192  1.1089 162 109  22
-0.3033 -0.2192  1.1089 164 111  24
-0.3057 -0.2196  1.1110 162 110  20
-0.3080 -0.2200  1.1130 164 112  22
-0.3103 -0.2203  1.1149 158 105  20
-0.3121 -0.2203  1.1149 159 106  21
-0.3142 -0.2205  1.1159 162 108  28
-0.3161 -0.2206  1.1163 161 107  27
-0.3182 -0.2208  1.1171 158 105  22
-0.3200 -0.2208  1.1171 158 105  22
-0.3221 -0.2210  1.1181 156 103  20
-0.3242 -0.2212  1.1193 159 106  23
-0.3263 -0.2214  1.1201 158 106  25
-0.3281 -0.2214  1.1201 158 106  25
 0.1027 -0.2279  1.1436 124 134 137
 0.1008 -0.2278  1.1435 125 135 138
 0.0990 -0.2278  1.1435 125 135 138
 0.0971 -0.2278  1.1434 124 134 137
 0.0953 -0.2278  1.1434 118 128 133
 0.0935 -0.2279  1.1436 121 131 136
 0.0916 -0.2279  1.1439 125 137 139
 0.0898 -0.2279  1.1439 125 137 139
 0.0880 -0.2280  1.1444 124 136 140
 0.0862 -0.2282  1.1451 104 116 120
 0.0844 -0.2283  1.1459 104 114 121
 0.0826 -0.2283  1.1459  98 108 115
 0.0808 -0.2285  1.1468 128 138 143
 0.0790 -0.2287  1.1476 130 140 145
 0.0735 -0.2291  1.1496  91 100 110
 0.0717 -0.2291  1.1496  94 103 113
 0.0699 -0.2292  1.1501 131 143 149
 0.0680 -0.2293  1.1506 130 142 148
 0.0662 -0.2293  1.1506 137 149 153
 0.0643 -0.2294  1.1511 100 112 116
 0.0625 -0.2294  1.1515  99 106 114
 0.0607 -0.2295  1.1519  97 104 112
 0.0588 -0.2295  1.1519 131 127 132
 0.0570 -0.2295  1.1520 101  97 102
 0.0551 -0.2295  1.1520 134 101 112
 0.0532 -0.2295  1.1520 132  99 110
 0.0514 -0.2295  1.1519 140 117 125
 0.0495 -0.2295  1.1519 141 118 126
 0.0476 -0.2295  1.1519 137 114 124
 0.0458 -0.2295  1.1520 127 104 114
 0.0439 -0.2296  1.1521 129 123 129
 0.0421 -0.2296  1.1521 147 141 147
 0.0402 -0.2296  1.1524  99 106 114
 0.0384 -0.2296  1.1525  91  98 106
 0.0365 -0.2296  1.1525 146 156 163
 0.0346 -0.2296  1.1524 143 153 160
 0.0328 -0.2296  1.1524 144 154 159
 0.0309 -0.2296  1.1524 132 142 147
 0.0291 -0.2296  1.1524 133 140 148
 0.0272 -0.2296  1.1523 103 110 118
 0.0253 -0.2296  1.1521 108 118 125
 0.0235 -0.2295  1.1520 151 161 168
 0.0216 -0.2295  1.1520 145 155 160
 0.0197 -0.2295  1.1519 148 158 163
 0.0179 -0.2295  1.1519 138 145 153
 0.0160 -0.2295  1.1516  99 106 114
 0.0142 -0.2294  1.1515 111 118 126
 0.0123 -0.2294  1.1515 160 167 175
 0.0104 -0.2294  1.1513 151 163 167
 0.0086 -0.2293  1.1509 135 147 151
 0.0067 -0.2292  1.1504  90 100 107
 0.0049 -0.2292  1.1504  86  96 103
 0.0030 -0.2291  1.1499 103 113 120
 0.0011 -0.2290  1.1495 155 165 172
-0.0007 -0.2289  1.1490 150 160 165
-0.0026 -0.2289  1.1490 151 161 166
-0.0044 -0.2288  1.1485 119 129 136
-0.0063 -0.2287  1.1480 129 139 146
-0.0081 -0.2286  1.1475  93 103 110
-0.0100 -0.2286  1.1475 158 168 175
-0.0118 -0.2286  1.1475 152 162 169
-0.0137 -0.2286  1.1475 147 157 164
-0.0155 -0.2287  1.1479  89  98 108
-0.0174 -0.2288  1.1481 121 130 140
-0.0193 -0.2288  1.1481  93 104 115
-0.0211 -0.2289  1.1486 154 165 176
-0.0230 -0.2290  1.1494 152 163 172
-0.0249 -0.2292  1.1501 154 165 174
-0.0267 -0.2293  1.1510 132 143 152
-0.0286 -0.2293  1.1510 108 119 128
-0.0305 -0.2295  1.1520 161 172 181
-0.0324 -0.2298  1.1533 156 167 176
-0.0343 -0.2301  1.1546 157 169 173
-0.0361 -0.2301  1.1546 159 171 175
-0.0381 -0.2304  1.1561 112 121 131
-0.0400 -0.2306  1.1574 107 116 126
-0.0419 -0.2308  1.1584 118 127 137
-0.0438 -0.2310  1.1595 165 174 184
-0.0457 -0.2310  1.1595 160 170 177
-0.0476 -0.2312  1.1605 161 171 178
-0.0495 -0.2314  1.1614 144 154 161
-0.0514 -0.2315  1.1620 121 131 138
-0.0533 -0.2315  1.1620 143 148 157
-0.0552 -0.2316  1.1624 168 173 182
-0.0570 -0.2317  1.1626 126 107 120
-0.0589 -0.2318  1.1631 164 145 158
-0.0608 -0.2318  1.1631 166 145 156
-0.0627 -0.2319  1.1640 149 128 139
-0.0647 -0.2321  1.1648 166 148 158
-0.0666 -0.2323  1.1656 158 140 150
-0.0685 -0.2324  1.1664 125 115 125
-0.0704 -0.2324  1.1664 181 171 181
-0.0931 -0.2327  1.1679 168 182 188
-0.0950 -0.2327  1.1678 171 183 189
-0.0969 -0.2327  1.1678 170 182 188
-0.0988 -0.2326  1.1676 170 182 188
-0.1007 -0.2326  1.1676 172 184 190
-0.1025 -0.2326  1.1676 171 183 189
-0.2953 -0.2203  1.1058 151 103  41
-0.2971 -0.2203  1.1058 148 100  38
-0.2992 -0.2206  1.1071 148 100  38
-0.3015 -0.2209  1.1089 145  96  37
-0.3033 -0.2209  1.1089 143  94  35
-0.3057 -0.2214  1.1110 142  93  34
-0.3080 -0.2218  1.1130 143  94  35
-0.3103 -0.2221  1.1149 134  85  26
-0.3121 -0.2221  1.1149 135  86  27
-0.3142 -0.2223  1.1159 132  83  28
-0.3163 -0.2225  1.1169 132  83  28
-0.3183 -0.2227  1.1176 130  81  24
-0.3201 -0.2227  1.1176 132  83  26
-0.3222 -0.2229  1.1186 129  80  21
-0.3244 -0.2231  1.1199 129  80  21
 0.1027 -0.2297  1.1436 134 141 145
 0.1008 -0.2297  1.1435 133 140 144
 0.0990 -0.2297  1.1435 136 146 151
 0.0971 -0.2297  1.1434  86  96 101
 0.0953 -0.2297  1.1434  92  99 107
 0.0935 -0.2297  1.1436  95 102 110
 0.0916 -0.2298  1.1439 137 147 150
 0.0898 -0.2298  1.1439 131 141 144
 0.0880 -0.2299  1.1444 129 141 145
 0.0862 -0.2300  1.1451 117 129 133
 0.0844 -0.2302  1.1459  93 102 112
 0.0826 -0.2302  1.1459  82  91 101
 0.0808 -0.2303  1.1468 132 142 147
 0.0790 -0.2305  1.1476 136 146 151
 0.0772 -0.2307  1.1484 139 149 154
 0.0754 -0.2308  1.1490  96 106 111
 0.0735 -0.2308  1.1490  90  96 107
 0.0717 -0.2309  1.1495  78  84  95
 0.0699 -0.2310  1.1501 136 148 154
 0.0680 -0.2311  1.1506 137 149 155
 0.0662 -0.2311  1.1506 144 156 160
 0.0643 -0.2312  1.1511  90 102 106
 0.0625 -0.2313  1.1515 111 117 128
 0.0607 -0.2314  1.1519  92  98 109
 0.0588 -0.2314  1.1519 121 115 121
 0.0570 -0.2314  1.1520 104  98 104
 0.0551 -0.2314  1.1520 113  79  87
 0.0532 -0.2314  1.1520 159 125 133
 0.0514 -0.2314  1.1519 137 107 117
 0.0495 -0.2314  1.1519 158 128 138
 0.0476 -0.2314  1.1519 133 108 116
 0.0458 -0.2314  1.1520 141 116 124
 0.0439 -0.2314  1.1521 135 124 132
 0.0421 -0.2314  1.1521 165 154 162
 0.0402 -0.2315  1.1524 139 145 156
 0.0384 -0.2315  1.1525  83  89 100
 0.0365 -0.2315  1.1525 158 167 177
 0.0346 -0.2315  1.1524 150 159 169
 0.0328 -0.2315  1.1524 151 161 168
 0.0309 -0.2315  1.1524 153 163 170
 0.0291 -0.2315  1.1524  98 107 119
 0.0272 -0.2315  1.1524 102 111 123
 0.0253 -0.2314  1.1521 147 156 166
 0.0235 -0.2314  1.1520 157 166 176
 0.0216 -0.2314  1.1520 153 163 170
 0.0197 -0.2314  1.1519 144 154 161
 0.0179 -0.2314  1.1519 115 124 134
 0.0160 -0.2313  1.1518 121 130 140
 0.0142 -0.2313  1.1516  95 106 115
 0.0123 -0.2313  1.1516 164 175 184
 0.0104 -0.2312  1.1513 155 169 173
 0.0086 -0.2312  1.1509 149 163 167
 0.0067 -0.2311  1.1504 132 142 149
 0.0049 -0.2311  1.1504 107 117 124
 0.0030 -0.2310  1.1499 108 120 126
 0.0011 -0.2309  1.1495 160 172 178
-0.0007 -0.2308  1.1491 156 168 174
-0.0026 -0.2308  1.1491 153 165 171
-0.0044 -0.2307  1.1485 116 127 136
-0.0063 -0.2306  1.1480 113 124 133
-0.0081 -0.2305  1.1475 128 138 145
-0.0100 -0.2305  1.1475 165 175 182
-0.0118 -0.2305  1.1475 157 167 174
-0.0137 -0.2305  1.1475 161 171 178
-0.0155 -0.2306  1.1479 136 146 153
-0.0174 -0.2306  1.1481 125 135 142
-0.0193 -0.2306  1.1481 136 149 160
-0.0211 -0.2307  1.1486 156 169 180
-0.0230 -0.2309  1.1494 157 170 179
-0.0249 -0.2310  1.1501 157 170 179
-0.0267 -0.2312  1.1510 154 165 174
-0.0286 -0.2312  1.1510 153 164 173
-0.0305 -0.2314  1.1520 160 171 180
-0.0324 -0.2316  1.1533 161 172 181
-0.0343 -0.2319  1.1546 161 173 179
-0.0361 -0.2319  1.1546 160 172 178
-0.0381 -0.2322  1.1561 161 173 179
-0.0400 -0.2325  1.1574 159 171 177
-0.0419 -0.2327  1.1584 163 175 181
-0.0438 -0.2329  1.1595 164 176 182
-0.0457 -0.2329  1.1595 163 175 181
-0.0476 -0.2331  1.1605 163 175 181
-0.0495 -0.2333  1.1614 164 176 182
-0.0514 -0.2334  1.1620 161 173 179
-0.0533 -0.2334  1.1620 167 177 184
-0.0552 -0.2335  1.1624 167 177 184
-0.0570 -0.2335  1.1626 160 158 167
-0.0589 -0.2336  1.1631 162 160 169
-0.0608 -0.2336  1.1631 169 162 171
-0.0627 -0.2338  1.1640 162 155 164
-0.0647 -0.2340  1.1648 169 162 173
-0.0666 -0.2341  1.1656 176 169 180
-0.0931 -0.2346  1.1679 168 182 188
-0.0950 -0.2346  1.1678 170 182 186
-0.0969 -0.2345  1.1676 168 180 184
-0.0988 -0.2345  1.1676 167 179 183
-0.1007 -0.2345  1.1676 170 182 186
-0.1025 -0.2345  1.1676 168 178 183
-0.2955 -0.2222  1.1064  80  36   4
-0.2972 -0.2222  1.1064  76  34   2
-0.2995 -0.2226  1.1081  77  35   3
-0.3018 -0.2229  1.1099  72  33   2
-0.3036 -0.2229  1.1099  77  38   7
-0.3059 -0.2233  1.1118  82  43  10
-0.3082 -0.2237  1.1138  90  51  18
-0.3105 -0.2241  1.1156 102  58  26
-0.3123 -0.2241  1.1156 103  59  27
-0.3144 -0.2242  1.1164  99  56  21
-0.3164 -0.2244  1.1174  99  56  21
-0.3185 -0.2246  1.1184 101  56  20
-0.3203 -0.2246  1.1184  97  52  16
-0.3224 -0.2248  1.1194 100  57  20
 0.1721 -0.2306  1.1388 121 127 129
 0.1703 -0.2306  1.1388 108 114 116
 0.1685 -0.2306  1.1390  97  84  90
 0.1667 -0.2306  1.1390 120 107 113
 0.1648 -0.2306  1.1391 103  82  91
 0.1630 -0.2306  1.1390 121 100 109
 0.1611 -0.2306  1.1390 124 106 112
 0.1593 -0.2306  1.1389 110  92  98
 0.1574 -0.2305  1.1386  99  86  90
 0.1556 -0.2305  1.1386 141 128 132
 0.1537 -0.2305  1.1386 129 132 133
 0.1519 -0.2305  1.1386 109 112 113
 0.1501 -0.2305  1.1386 126 133 137
 0.1483 -0.2306  1.1389 125 132 136
 0.1464 -0.2306  1.1391 124 137 136
 0.1446 -0.2306  1.1391 123 136 135
 0.1428 -0.2308  1.1398 112 122 127
 0.1411 -0.2309  1.1404  91 101 106
 0.1393 -0.2310  1.1409  91  98 104
 0.1375 -0.2312  1.1416 123 130 136
 0.1357 -0.2312  1.1416 129 139 142
 0.1340 -0.2313  1.1424 132 142 145
 0.1322 -0.2315  1.1433 112 119 123
 0.1304 -0.2316  1.1440  91  98 102
 0.1286 -0.2316  1.1440  83  90  96
 0.1268 -0.2318  1.1448 119 126 132
 0.1251 -0.2319  1.1454 134 139 146
 0.1233 -0.2320  1.1459 136 141 148
 0.1214 -0.2320  1.1459 136 146 151
 0.1196 -0.2321  1.1461 110 120 125
 0.1177 -0.2321  1.1463  70  76  87
 0.1159 -0.2321  1.1463 123 129 140
 0.1140 -0.2320  1.1460 136 146 149
 0.1122 -0.2320  1.1460 135 145 148
 0.1046 -0.2316  1.1440 110 120 127
 0.1027 -0.2316  1.1436 141 148 154
 0.1008 -0.2315  1.1434 139 146 152
 0.0990 -0.2315  1.1434 138 145 153
 0.0971 -0.2315  1.1434  69  76  84
 0.0953 -0.2315  1.1434 100 101 114
 0.0935 -0.2315  1.1435  96  97 110
 0.0916 -0.2316  1.1439 143 153 158
 0.0898 -0.2316  1.1439 138 148 153
 0.0880 -0.2317  1.1444 137 149 153
 0.0862 -0.2319  1.1451 144 156 160
 0.0844 -0.2320  1.1459  89  98 108
 0.0826 -0.2320  1.1459 125 134 144
 0.0808 -0.2322  1.1468 145 155 162
 0.0790 -0.2324  1.1476 142 152 159
 0.0772 -0.2325  1.1484 145 156 165
 0.0754 -0.2326  1.1490  88  99 108
 0.0735 -0.2326  1.1490 100 106 119
 0.0717 -0.2328  1.1495  82  88 101
 0.0699 -0.2329  1.1501 135 146 155
 0.0680 -0.2330  1.1506 144 155 164
 0.0662 -0.2330  1.1506 149 161 167
 0.0643 -0.2331  1.1511 123 135 141
 0.0625 -0.2332  1.1515 100 109 121
 0.0607 -0.2332  1.1519  86  95 107
 0.0588 -0.2332  1.1519 127 120 129
 0.0570 -0.2333  1.1520 107 100 109
 0.0551 -0.2333  1.1520 137 103 111
 0.0532 -0.2333  1.1520 166 132 140
 0.0514 -0.2332  1.1519 127  97 107
 0.0495 -0.2332  1.1519 164 134 144
 0.0476 -0.2332  1.1519 146 121 129
 0.0458 -0.2333  1.1520 143 118 126
 0.0439 -0.2333  1.1521 137 124 132
 0.0421 -0.2333  1.1521 175 162 170
 0.0402 -0.2333  1.1524 147 154 162
 0.0384 -0.2334  1.1525  99 106 114
 0.0365 -0.2334  1.1525 161 170 180
 0.0346 -0.2333  1.1524 154 163 173
 0.0328 -0.2333  1.1524 157 167 174
 0.0309 -0.2333  1.1524 144 154 161
 0.0291 -0.2333  1.1524 100 111 120
 0.0272 -0.2333  1.1524 104 115 124
 0.0253 -0.2333  1.1521 128 139 148
 0.0235 -0.2333  1.1520 159 170 179
 0.0216 -0.2333  1.1520 160 170 177
 0.0197 -0.2333  1.1520 160 170 177
 0.0179 -0.2332  1.1519 128 140 146
 0.0160 -0.2332  1.1518 129 141 147
 0.0142 -0.2332  1.1516 151 164 173
 0.0123 -0.2332  1.1516 161 174 183
 0.0104 -0.2331  1.1514 158 172 178
 0.0086 -0.2330  1.1509 162 176 182
 0.0067 -0.2329  1.1504 165 177 183
 0.0049 -0.2329  1.1504 160 172 178
 0.0030 -0.2328  1.1499 159 171 177
 0.0011 -0.2328  1.1495 161 173 179
-0.0007 -0.2327  1.1491 160 172 178
-0.0026 -0.2327  1.1491 161 173 179
-0.0044 -0.2326  1.1486 159 173 179
-0.0063 -0.2324  1.1480 134 148 154
-0.0081 -0.2323  1.1475 160 170 177
-0.0100 -0.2323  1.1475 164 174 181
-0.0118 -0.2323  1.1475 161 171 178
-0.0137 -0.2323  1.1475 161 171 178
-0.0155 -0.2324  1.1479 159 171 177
-0.0174 -0.2325  1.1483 159 171 177
-0.0193 -0.2325  1.1483 158 171 180
-0.0211 -0.2326  1.1486 158 171 180
-0.0230 -0.2327  1.1494 159 172 181
-0.0249 -0.2329  1.1501 159 172 181
-0.0267 -0.2331  1.1510 159 173 179
-0.0286 -0.2331  1.1510 157 171 177
-0.0305 -0.2333  1.1520 162 176 182
-0.0324 -0.2335  1.1533 161 175 181
-0.0343 -0.2338  1.1546 161 175 181
-0.0361 -0.2338  1.1546 162 176 182
-0.0381 -0.2341  1.1561 164 176 182
-0.0400 -0.2343  1.1574 159 171 177
-0.0419 -0.2345  1.1584 164 176 182
-0.0438 -0.2348  1.1595 165 177 183
-0.0457 -0.2348  1.1595 164 176 182
-0.0476 -0.2350  1.1605 165 177 183
-0.0495 -0.2352  1.1614 165 177 183
-0.0514 -0.2353  1.1620 160 172 178
-0.0533 -0.2353  1.1620 166 176 183
-0.0552 -0.2354  1.1624 167 177 184
-0.0570 -0.2354  1.1626 168 173 178
-0.0589 -0.2355  1.1631 168 173 178
-0.0608 -0.2355  1.1631 170 172 178
-0.0627 -0.2357  1.1640 169 171 177
-0.0647 -0.2358  1.1648 167 169 175
-0.0950 -0.2364  1.1678 167 175 176
-0.0969 -0.2364  1.1676 167 175 176
-0.0988 -0.2364  1.1676 167 173 175
-0.1007 -0.2364  1.1676 167 173 175
-0.2979 -0.2245  1.1088  62  29  12
-0.2997 -0.2245  1.1088  61  28  11
-0.3020 -0.2249  1.1106  57  27  11
-0.3038 -0.2249  1.1106  59  29  13
-0.3060 -0.2252  1.1121  59  26   9
-0.3083 -0.2256  1.1141  86  53  36
-0.3106 -0.2260  1.1160  96  64  40
-0.3124 -0.2260  1.1160  96  64  40
-0.3145 -0.2262  1.1170  93  62  35
-0.3166 -0.2263  1.1179  92  61  34
-0.3186 -0.2265  1.1188  93  60  33
-0.3204 -0.2265  1.1188  92  59  32
 0.1739 -0.2323  1.1383  90 100 105
 0.1721 -0.2323  1.1383 124 119 127
 0.1703 -0.2324  1.1386 113 108 116
 0.1685 -0.2324  1.1389 113  90 102
 0.1666 -0.2324  1.1389 144 121 133
 0.1648 -0.2324  1.1389 106  78  89
 0.1630 -0.2324  1.1389 145 117 128
 0.1611 -0.2324  1.1389 129 106 114
 0.1593 -0.2324  1.1388 124 101 109
 0.1574 -0.2324  1.1386 101  80  87
 0.1556 -0.2324  1.1385 157 136 143
 0.1537 -0.2324  1.1385 109 109 113
 0.1519 -0.2324  1.1385  72  72  76
 0.1500 -0.2324  1.1385 128 135 141
 0.1482 -0.2324  1.1386 134 141 147
 0.1464 -0.2325  1.1391 132 142 145
 0.1446 -0.2325  1.1391 131 141 144
 0.1428 -0.2326  1.1398 107 114 120
 0.1411 -0.2327  1.1404 117 124 130
 0.1393 -0.2328  1.1409  85  90  99
 0.1375 -0.2330  1.1416 118 123 132
 0.1357 -0.2330  1.1416 136 146 151
 0.1340 -0.2332  1.1424 133 143 148
 0.1322 -0.2333  1.1433 129 139 146
 0.1304 -0.2335  1.1440 110 120 127
 0.1286 -0.2335  1.1440  76  83  91
 0.1268 -0.2336  1.1448 112 119 127
 0.1251 -0.2338  1.1454 144 151 159
 0.1233 -0.2339  1.1459 140 147 155
 0.1214 -0.2339  1.1459 132 142 149
 0.1196 -0.2339  1.1461  84  94 101
 0.1177 -0.2339  1.1463  84  88 102
 0.1159 -0.2339  1.1463 110 114 128
 0.1140 -0.2339  1.1460 145 152 158
 0.1121 -0.2338  1.1456 142 149 155
