ply
format ascii 1.0
element vertex 1328
property float x
property float y
property float z
property uchar red
property uchar green
property uchar blue
end_header
-0.0879 -0.1242  0.4886 190 193 194
-0.0887 -0.1242  0.4887 191 194 195
-0.0895 -0.1242  0.4887 191 194 195
-0.0903 -0.1242  0.4888 191 194 195
-0.0911 -0.1242  0.4888 191 194 195
-0.0919 -0.1243  0.4889 191 194 195
-0.0927 -0.1243  0.4889 191 194 195
-0.0935 -0.1243  0.4889 190 193 194
-0.0943 -0.1243  0.4889 188 191 192
-0.0950 -0.1243  0.4889 188 191 192
-0.0958 -0.1242  0.4888 188 191 192
-0.0966 -0.1242  0.4888 187 190 191
-0.0973 -0.1242  0.4886 188 191 192
-0.0981 -0.1241  0.4883 187 190 191
-0.0988 -0.1241  0.4882 188 191 192
-0.0996 -0.1241  0.4882 190 193 194
-0.1004 -0.1240  0.4879 188 191 192
-0.1011 -0.1239  0.4877 188 191 190
-0.1019 -0.1239  0.4876 188 191 190
-0.1027 -0.1239  0.4876 187 190 189
-0.1034 -0.1239  0.4876 187 190 189
-0.1042 -0.1239  0.4874 187 190 189
-0.1050 -0.1239  0.4873 188 191 190
-0.1057 -0.1239  0.4873 188 191 190
-0.1065 -0.1238  0.4872 188 191 190
-0.1072 -0.1238  0.4869 188 191 190
-0.1080 -0.1238  0.4869 188 191 190
-0.1088 -0.1238  0.4869 187 190 189
-0.1096 -0.1237  0.4868 187 190 189
-0.1104 -0.1237  0.4868 187 190 189
-0.1112 -0.1238  0.4869 188 191 190
-0.1120 -0.1238  0.4869 188 191 190
-0.1127 -0.1238  0.4869 188 191 190
-0.1136 -0.1238  0.4872 187 190 189
-0.1144 -0.1239  0.4873 186 189 188
-0.1152 -0.1239  0.4876 186 189 188
-0.1160 -0.1239  0.4876 187 190 189
-0.1169 -0.1239  0.4877 187 190 189
-0.1177 -0.1240  0.4879 187 190 189
-0.1185 -0.1240  0.4881 187 190 189
-0.1193 -0.1240  0.4881 186 189 188
-0.1201 -0.1240  0.4881 186 189 188
-0.1208 -0.1240  0.4878 186 189 188
-0.1216 -0.1240  0.4878 186 189 188
-0.1223 -0.1239  0.4876 186 189 188
-0.1230 -0.1238  0.4872 185 188 187
-0.1238 -0.1238  0.4869 186 189 188
-0.1245 -0.1238  0.4869 186 189 188
-0.1253 -0.1237  0.4868 186 189 188
-0.1260 -0.1237  0.4867 185 188 187
-0.1268 -0.1237  0.4867 184 187 186
-0.1280 -0.1240  0.4881 185 188 187
-0.1288 -0.1240  0.4881 184 187 186
-0.1296 -0.1241  0.4882 184 187 186
-0.1304 -0.1241  0.4883 183 186 185
-0.1313 -0.1242  0.4886 183 186 185
-0.1321 -0.1242  0.4888 183 186 185
-0.1329 -0.1242  0.4888 184 187 186
-0.1338 -0.1243  0.4891 184 187 186
-0.1346 -0.1244  0.4893 181 184 183
-0.1355 -0.1244  0.4894 181 184 183
-0.1362 -0.1244  0.4894 181 184 183
-0.1370 -0.1244  0.4894 181 184 183
-0.1378 -0.1244  0.4893 180 183 182
-0.1386 -0.1244  0.4893 180 183 182
-0.1393 -0.1243  0.4892 180 183 182
-0.1401 -0.1243  0.4892 180 183 182
-0.1409 -0.1243  0.4892 180 183 184
-0.1417 -0.1243  0.4892 179 182 183
-0.1425 -0.1243  0.4892 179 182 183
-0.1433 -0.1243  0.4892 178 181 182
-0.1441 -0.1243  0.4892 178 181 182
-0.1449 -0.1243  0.4892 178 181 182
-0.1456 -0.1243  0.4891 177 180 181
-0.1464 -0.1243  0.4889 177 180 181
-0.1472 -0.1243  0.4889 177 180 179
-0.1479 -0.1243  0.4889 177 180 179
-0.1487 -0.1243  0.4889 177 180 179
-0.1495 -0.1243  0.4889 176 179 178
-0.1503 -0.1243  0.4889 177 180 179
-0.1511 -0.1243  0.4889 177 180 179
-0.1519 -0.1243  0.4889 176 179 178
-0.1526 -0.1242  0.4887 174 177 176
-0.1534 -0.1242  0.4887 174 177 176
-0.1541 -0.1242  0.4886 176 179 178
-0.1549 -0.1241  0.4884 174 177 176
-0.1556 -0.1241  0.4883 174 177 176
-0.1564 -0.1241  0.4883 174 177 176
-0.1572 -0.1241  0.4882 174 177 176
-0.1579 -0.1240  0.4881 174 177 176
-0.1587 -0.1240  0.4881 174 177 176
-0.1595 -0.1240  0.4881 174 177 176
-0.1602 -0.1240  0.4879 174 177 176
-0.1610 -0.1240  0.4879 174 177 176
-0.1618 -0.1240  0.4879 173 176 175
-0.1625 -0.1239  0.4877 173 176 175
-0.1633 -0.1239  0.4876 173 176 175
-0.1640 -0.1239  0.4873 174 174 174
-0.1648 -0.1239  0.4873 175 175 175
-0.1654 -0.1238  0.4869 176 176 176
-0.1661 -0.1237  0.4867 175 175 175
-0.1668 -0.1236  0.4864 175 175 175
-0.1676 -0.1236  0.4864 175 175 175
-0.1683 -0.1236  0.4862 176 176 176
-0.1691 -0.1236  0.4862 175 175 175
-0.1699 -0.1236  0.4862 175 175 175
-0.1706 -0.1235  0.4861 175 175 175
-0.1714 -0.1235  0.4859 174 174 174
-0.1721 -0.1235  0.4858 175 175 175
-0.1729 -0.1235  0.4858 172 175 174
-0.1736 -0.1234  0.4856 172 175 174
-0.1744 -0.1234  0.4856 174 174 174
-0.1751 -0.1234  0.4856 174 174 174
-0.1759 -0.1234  0.4856 174 174 174
-0.1767 -0.1234  0.4856 174 174 174
-0.1775 -0.1234  0.4857 173 173 173
-0.1783 -0.1234  0.4857 173 173 173
-0.1791 -0.1234  0.4857 173 173 173
-0.1799 -0.1235  0.4858 174 174 174
-0.1816 -0.1240  0.4881 173 174 170
-0.1823 -0.1240  0.4879 172 173 169
-0.1831 -0.1240  0.4879 173 174 170
-0.1838 -0.1239  0.4877 172 173 169
-0.1845 -0.1239  0.4874 173 173 173
-0.1853 -0.1239  0.4874 173 173 173
-0.1860 -0.1238  0.4872 173 173 173
-0.1867 -0.1238  0.4871 173 173 173
-0.1875 -0.1238  0.4871 173 173 173
-0.1883 -0.1238  0.4871 173 173 173
-0.1890 -0.1238  0.4869 173 173 173
-0.1898 -0.1238  0.4869 173 173 173
-0.1906 -0.1238  0.4869 173 173 173
-0.1914 -0.1238  0.4869 173 173 173
-0.1922 -0.1238  0.4869 173 173 173
-0.1930 -0.1238  0.4872 172 172 172
-0.1939 -0.1239  0.4873 172 172 172
-0.1947 -0.1239  0.4873 173 173 173
-0.1956 -0.1239  0.4877 172 172 172
-0.1965 -0.1240  0.4879 172 172 172
-0.1975 -0.1241  0.4884 173 173 173
-0.1983 -0.1241  0.4884 173 173 173
-0.1992 -0.1242  0.4887 173 173 173
-0.2001 -0.1243  0.4889 173 173 173
-0.2008 -0.1242  0.4888 173 173 173
-0.2015 -0.1242  0.4887 173 173 173
-0.2022 -0.1241  0.4883 173 173 173
-0.2030 -0.1241  0.4883 173 173 173
-0.2036 -0.1240  0.4879 173 173 173
-0.2042 -0.1239  0.4874 173 173 173
-0.2049 -0.1239  0.4874 173 173 173
-0.2055 -0.1238  0.4869 173 173 173
-0.2062 -0.1237  0.4867 173 173 173
-0.2069 -0.1237  0.4866 173 173 173
-0.2077 -0.1237  0.4866 173 173 173
-0.2085 -0.1237  0.4866 173 173 173
-0.2093 -0.1237  0.4866 173 173 175
-0.2102 -0.1237  0.4868 174 174 176
-0.2110 -0.1237  0.4868 173 173 175
-0.2118 -0.1238  0.4869 172 172 174
-0.2127 -0.1238  0.4871 173 173 175
-0.2135 -0.1238  0.4872 173 173 175
-0.2143 -0.1238  0.4872 173 173 175
-0.2152 -0.1239  0.4874 173 173 175
-0.2160 -0.1239  0.4876 172 172 174
-0.2168 -0.1239  0.4876 172 172 174
-0.2177 -0.1239  0.4877 172 172 174
-0.2184 -0.1239  0.4877 172 172 174
-0.2200 -0.1244  0.4893 172 172 174
-0.2207 -0.1243  0.4892 173 173 175
-0.2215 -0.1243  0.4892 172 172 174
-0.2223 -0.1243  0.4892 173 173 175
-0.2230 -0.1243  0.4891 172 172 172
-0.2237 -0.1243  0.4889 173 173 173
-0.2245 -0.1243  0.4889 171 171 171
-0.2253 -0.1243  0.4889 172 172 172
-0.2261 -0.1243  0.4889 172 172 172
-0.2269 -0.1243  0.4889 173 173 173
-0.2277 -0.1243  0.4889 173 173 173
-0.2285 -0.1243  0.4889 172 172 172
-0.2293 -0.1243  0.4889 170 173 174
-0.2301 -0.1243  0.4889 170 173 174
-0.2308 -0.1243  0.4889 171 174 175
-0.2316 -0.1243  0.4889 171 174 175
-0.2323 -0.1242  0.4887 170 173 174
-0.2331 -0.1242  0.4887 170 173 174
-0.2338 -0.1242  0.4886 171 174 175
-0.2346 -0.1241  0.4884 171 174 175
-0.2353 -0.1241  0.4884 171 174 175
-0.2361 -0.1241  0.4884 172 175 176
-0.2369 -0.1241  0.4884 171 174 175
-0.2378 -0.1242  0.4886 171 174 175
-0.2386 -0.1242  0.4886 171 174 175
-0.2395 -0.1242  0.4888 171 174 175
-0.2404 -0.1243  0.4892 171 174 175
-0.2414 -0.1244  0.4894 171 174 175
-0.2421 -0.1244  0.4894 171 174 175
-0.2431 -0.1245  0.4897 171 174 175
-0.2440 -0.1245  0.4899 171 174 173
-0.2448 -0.1245  0.4899 171 174 173
-0.2457 -0.1246  0.4902 171 174 173
-0.2466 -0.1246  0.4904 171 174 173
-0.2475 -0.1247  0.4906 171 174 173
-0.2482 -0.1247  0.4906 171 174 173
-0.2491 -0.1247  0.4907 171 174 173
-0.2500 -0.1248  0.4909 171 174 173
-0.2508 -0.1248  0.4909 171 174 173
-0.2517 -0.1248  0.4912 172 175 174
-0.2539 -0.1255  0.4939 171 174 175
-0.2549 -0.1256  0.4942 171 174 175
-0.2557 -0.1256  0.4942 171 174 175
-0.2565 -0.1256  0.4942 171 174 175
-0.2573 -0.1256  0.4943 172 175 176
-0.2581 -0.1256  0.4942 171 174 175
-0.2589 -0.1256  0.4942 171 174 175
 0.2263 -0.1273  0.4976 161 167 169
 0.2253 -0.1272  0.4973 160 166 168
 0.2245 -0.1272  0.4973 161 167 169
 0.2231 -0.1268  0.4958 161 167 169
 0.2223 -0.1268  0.4958 161 167 169
 0.2207 -0.1264  0.4942 160 166 168
 0.2188 -0.1257  0.4916 160 166 168
 0.2180 -0.1257  0.4916 161 167 169
 0.2164 -0.1252  0.4897 161 167 169
 0.2150 -0.1249  0.4884 160 166 168
 0.2142 -0.1249  0.4884 160 166 168
 0.2133 -0.1249  0.4882 160 166 168
 0.2115 -0.1243  0.4858 160 166 168
 0.2107 -0.1243  0.4858 160 166 168
 0.2099 -0.1243  0.4858 162 165 168
 0.2093 -0.1243  0.4861 162 165 168
 0.2087 -0.1244  0.4866 162 165 168
 0.2079 -0.1244  0.4866 162 165 168
 0.2074 -0.1246  0.4872 162 165 168
 0.2068 -0.1247  0.4877 160 163 166
 0.2063 -0.1249  0.4883 160 163 166
 0.2055 -0.1249  0.4883 159 162 165
 0.2048 -0.1249  0.4884 160 163 166
 0.2041 -0.1250  0.4887 160 163 166
 0.2033 -0.1250  0.4887 160 163 166
 0.2025 -0.1250  0.4887 162 165 168
 0.2018 -0.1250  0.4888 162 165 168
 0.2010 -0.1250  0.4888 160 163 166
 0.2002 -0.1250  0.4888 160 163 166
 0.1993 -0.1250  0.4887 160 163 166
 0.1986 -0.1250  0.4887 160 163 166
 0.1977 -0.1249  0.4884 160 163 166
 0.1969 -0.1249  0.4884 162 162 166
 0.1961 -0.1249  0.4884 162 162 166
 0.1952 -0.1249  0.4883 162 162 166
 0.1945 -0.1249  0.4883 162 162 166
 0.1937 -0.1249  0.4884 162 162 166
 0.1929 -0.1249  0.4884 161 161 165
 0.1922 -0.1250  0.4887 159 162 165
 0.1916 -0.1251  0.4889 159 162 165
 0.1909 -0.1251  0.4892 159 162 165
 0.1901 -0.1251  0.4892 159 162 165
 0.1894 -0.1252  0.4894 159 162 165
 0.1887 -0.1252  0.4897 159 162 165
 0.1879 -0.1252  0.4897 159 162 165
 0.1872 -0.1253  0.4899 159 162 165
 0.1865 -0.1253  0.4901 160 163 166
 0.1851 -0.1250  0.4887 160 163 166
 0.1844 -0.1250  0.4887 159 162 165
 0.1835 -0.1250  0.4886 159 162 165
 0.1827 -0.1250  0.4886 160 163 164
 0.1819 -0.1249  0.4884 158 161 162
 0.1811 -0.1249  0.4883 158 161 162
 0.1803 -0.1249  0.4883 158 161 162
 0.1794 -0.1248  0.4881 158 161 164
 0.1786 -0.1248  0.4879 159 162 165
 0.1777 -0.1247  0.4877 160 160 164
 0.1769 -0.1247  0.4877 160 160 164
 0.1760 -0.1247  0.4874 160 160 162
 0.1752 -0.1247  0.4874 160 160 162
 0.1744 -0.1247  0.4874 160 160 162
 0.1736 -0.1247  0.4874 160 160 162
 0.1729 -0.1247  0.4876 160 160 162
 0.1722 -0.1248  0.4879 160 160 162
 0.1717 -0.1250  0.4886 160 160 162
 0.1709 -0.1250  0.4886 160 160 162
 0.1704 -0.1252  0.4894 160 160 162
 0.1699 -0.1254  0.4902 159 159 161
 0.1692 -0.1255  0.4906 159 159 161
 0.1684 -0.1255  0.4906 160 160 162
 0.1678 -0.1256  0.4909 159 159 161
 0.1670 -0.1256  0.4911 159 159 161
 0.1662 -0.1256  0.4911 159 159 161
 0.1654 -0.1256  0.4911 159 159 161
 0.1646 -0.1256  0.4909 159 159 161
 0.1638 -0.1256  0.4909 159 159 161
 0.1630 -0.1256  0.4909 158 158 160
 0.1622 -0.1256  0.4909 158 158 160
 0.1614 -0.1256  0.4909 158 158 160
 0.1606 -0.1256  0.4909 158 158 160
 0.1598 -0.1256  0.4909 158 158 160
 0.1590 -0.1255  0.4907 158 158 160
 0.1582 -0.1255  0.4907 158 158 158
 0.1572 -0.1254  0.4902 157 157 157
 0.1563 -0.1253  0.4898 158 158 158
 0.1555 -0.1253  0.4898 157 157 157
 0.1546 -0.1252  0.4896 158 158 158
 0.1538 -0.1252  0.4894 157 157 157
 0.1524 -0.1247  0.4874 157 157 157
 0.1516 -0.1247  0.4874 157 157 157
 0.1508 -0.1246  0.4873 157 157 157
 0.1500 -0.1246  0.4872 157 157 157
 0.1492 -0.1246  0.4872 157 157 157
 0.1483 -0.1246  0.4871 157 157 157
 0.1476 -0.1246  0.4871 158 158 158
 0.1468 -0.1246  0.4871 158 158 158
 0.1460 -0.1246  0.4871 157 157 157
 0.1452 -0.1246  0.4871 157 157 157
 0.1445 -0.1246  0.4872 157 157 159
 0.1437 -0.1246  0.4872 155 155 157
 0.1429 -0.1246  0.4873 157 157 159
 0.1421 -0.1246  0.4873 157 157 159
 0.1413 -0.1246  0.4873 155 155 155
 0.1406 -0.1246  0.4873 157 157 157
 0.1398 -0.1246  0.4873 155 155 157
 0.1390 -0.1246  0.4873 155 155 157
 0.1382 -0.1247  0.4874 155 155 157
 0.1375 -0.1247  0.4877 157 157 159
 0.1367 -0.1247  0.4877 155 155 157
 0.1359 -0.1247  0.4877 155 155 157
 0.1352 -0.1248  0.4878 155 155 157
 0.1344 -0.1248  0.4879 155 155 157
 0.1336 -0.1248  0.4879 154 154 156
 0.1329 -0.1248  0.4879 155 155 157
 0.1321 -0.1248  0.4879 155 155 157
 0.1313 -0.1248  0.4879 155 155 157
 0.1305 -0.1248  0.4879 155 155 155
 0.1297 -0.1248  0.4879 155 155 155
 0.1289 -0.1248  0.4879 155 155 155
 0.1281 -0.1248  0.4879 155 155 155
 0.1273 -0.1248  0.4879 155 155 155
 0.1266 -0.1249  0.4882 157 157 157
 0.1259 -0.1249  0.4883 157 157 157
 0.1251 -0.1249  0.4884 155 155 155
 0.1243 -0.1249  0.4884 155 155 155
 0.1236 -0.1250  0.4887 154 154 154
 0.1228 -0.1250  0.4887 155 155 157
 0.1220 -0.1250  0.4887 155 155 157
 0.1212 -0.1250  0.4887 155 155 157
 0.1204 -0.1250  0.4887 155 155 157
 0.1196 -0.1250  0.4887 155 155 157
 0.1189 -0.1250  0.4887 155 155 157
 0.1181 -0.1250  0.4887 155 155 157
 0.1173 -0.1250  0.4887 157 157 159
 0.1165 -0.1250  0.4887 154 154 154
 0.1157 -0.1250  0.4887 155 155 155
 0.1150 -0.1251  0.4889 155 155 155
 0.1142 -0.1251  0.4892 155 155 155
 0.1135 -0.1252  0.4894 155 155 155
 0.1125 -0.1249  0.4883 155 155 155
 0.1117 -0.1249  0.4883 155 155 155
 0.1110 -0.1250  0.4887 155 155 155
 0.1102 -0.1251  0.4889 154 154 154
 0.1094 -0.1251  0.4889 154 154 154
 0.1087 -0.1251  0.4892 155 155 155
 0.1079 -0.1252  0.4893 154 154 154
 0.1072 -0.1252  0.4893 155 155 155
 0.1064 -0.1252  0.4893 154 154 154
 0.1056 -0.1252  0.4893 155 155 155
 0.1048 -0.1252  0.4893 154 154 154
 0.1040 -0.1252  0.4893 154 154 154
 0.1032 -0.1252  0.4893 155 155 155
 0.1024 -0.1252  0.4893 154 154 154
 0.1016 -0.1252  0.4894 154 154 154
 0.1009 -0.1252  0.4896 154 154 154
 0.1001 -0.1252  0.4896 154 154 154
 0.0993 -0.1252  0.4896 155 155 155
 0.0985 -0.1252  0.4896 154 154 154
 0.0977 -0.1252  0.4896 155 155 155
 0.0969 -0.1252  0.4894 154 154 154
 0.0961 -0.1252  0.4894 154 154 154
 0.0953 -0.1251  0.4892 154 154 154
 0.0945 -0.1251  0.4892 155 154 154
 0.0937 -0.1251  0.4892 155 154 154
 0.0929 -0.1251  0.4889 155 154 154
 0.0921 -0.1251  0.4889 155 154 154
 0.0913 -0.1251  0.4889 155 154 154
 0.0905 -0.1251  0.4889 155 154 154
 0.0897 -0.1251  0.4889 155 155 151
 0.0889 -0.1251  0.4889 155 155 151
 0.0881 -0.1251  0.4889 155 155 151
 0.0873 -0.1251  0.4889 155 155 151
 0.0866 -0.1251  0.4892 155 155 151
 0.0858 -0.1251  0.4892 156 156 152
 0.0850 -0.1252  0.4893 155 155 151
 0.0842 -0.1252  0.4893 155 155 151
 0.0835 -0.1252  0.4894 156 156 152
 0.0827 -0.1252  0.4893 155 155 151
 0.0819 -0.1252  0.4893 155 155 151
 0.0811 -0.1252  0.4893 155 155 151
 0.0803 -0.1251  0.4892 155 155 151
 0.0795 -0.1251  0.4892 156 156 152
 0.0787 -0.1251  0.4892 156 156 152
 0.0779 -0.1251  0.4892 155 155 151
 0.0771 -0.1252  0.4893 155 155 151
 0.0764 -0.1252  0.4894 156 156 152
 0.0756 -0.1252  0.4897 155 155 151
 0.0748 -0.1252  0.4897 155 155 151
 0.0741 -0.1253  0.4901 154 155 151
 0.0733 -0.1254  0.4904 154 155 151
 0.0726 -0.1255  0.4907 155 156 152
 0.0718 -0.1255  0.4907 155 156 152
 0.0710 -0.1255  0.4908 155 155 155
 0.0702 -0.1255  0.4908 155 155 155
 0.0694 -0.1255  0.4908 155 155 155
 0.0686 -0.1255  0.4907 155 155 155
 0.0678 -0.1254  0.4904 155 155 155
 0.0670 -0.1254  0.4902 155 155 155
 0.0662 -0.1254  0.4902 155 156 152
 0.0653 -0.1253  0.4898 155 156 152
 0.0645 -0.1252  0.4893 156 156 152
 0.0636 -0.1251  0.4889 156 156 152
 0.0629 -0.1251  0.4889 158 158 154
 0.0620 -0.1250  0.4887 156 156 152
 0.0612 -0.1249  0.4884 158 158 154
 0.0604 -0.1249  0.4884 158 158 154
 0.0596 -0.1249  0.4884 158 158 154
 0.0589 -0.1249  0.4884 158 158 154
 0.0581 -0.1249  0.4884 158 158 154
 0.0573 -0.1249  0.4884 158 158 154
 0.0565 -0.1250  0.4887 158 158 154
 0.0557 -0.1250  0.4887 158 158 154
 0.0550 -0.1251  0.4889 158 158 154
 0.0542 -0.1251  0.4892 159 159 155
 0.0535 -0.1252  0.4896 159 159 155
 0.0525 -0.1248  0.4879 158 158 154
 0.0517 -0.1248  0.4879 158 158 154
 0.0509 -0.1249  0.4882 158 158 154
 0.0502 -0.1249  0.4884 158 158 154
 0.0494 -0.1250  0.4886 159 159 155
 0.0486 -0.1250  0.4886 159 159 155
 0.0478 -0.1250  0.4887 159 159 155
 0.0471 -0.1251  0.4889 159 159 155
 0.0463 -0.1251  0.4891 158 158 154
 0.0455 -0.1251  0.4891 159 159 155
 0.0447 -0.1251  0.4892 159 159 155
 0.0439 -0.1251  0.4891 159 158 158
 0.0431 -0.1251  0.4891 159 158 158
 0.0423 -0.1251  0.4889 159 158 158
 0.0415 -0.1250  0.4888 159 158 158
 0.0407 -0.1250  0.4887 159 158 158
 0.0399 -0.1250  0.4887 159 158 158
 0.0392 -0.1250  0.4887 158 158 158
 0.0384 -0.1250  0.4887 158 158 158
 0.0376 -0.1250  0.4888 158 158 158
 0.0368 -0.1251  0.4889 158 158 158
 0.0360 -0.1251  0.4889 159 158 158
 0.0352 -0.1251  0.4891 159 158 158
 0.0345 -0.1251  0.4892 160 159 159
 0.0337 -0.1251  0.4892 160 159 159
 0.0329 -0.1251  0.4892 160 159 159
 0.0321 -0.1251  0.4892 159 158 158
 0.0313 -0.1251  0.4892 160 159 159
 0.0305 -0.1251  0.4891 160 159 159
 0.0297 -0.1251  0.4891 160 159 159
 0.0289 -0.1251  0.4889 160 159 159
 0.0281 -0.1250  0.4888 160 159 159
 0.0273 -0.1250  0.4888 160 159 159
 0.0265 -0.1250  0.4888 160 159 159
 0.0257 -0.1250  0.4887 160 159 159
 0.0249 -0.1250  0.4887 160 159 159
 0.0242 -0.1250  0.4887 160 159 159
 0.0234 -0.1250  0.4888 160 159 159
 0.0226 -0.1250  0.4888 160 159 159
 0.0218 -0.1250  0.4888 162 161 161
 0.0210 -0.1251  0.4889 161 160 160
 0.0202 -0.1251  0.4889 161 160 160
 0.0194 -0.1251  0.4889 162 161 161
 0.0186 -0.1251  0.4889 162 161 161
 0.0179 -0.1251  0.4889 162 161 161
 0.0171 -0.1250  0.4888 161 160 160
 0.0163 -0.1250  0.4888 161 160 160
 0.0155 -0.1250  0.4887 161 160 160
 0.0147 -0.1250  0.4887 161 160 160
 0.0139 -0.1249  0.4884 162 161 161
 0.0131 -0.1249  0.4884 161 160 160
 0.0123 -0.1249  0.4882 162 161 161
 0.0115 -0.1249  0.4882 162 161 161
 0.0107 -0.1249  0.4882 162 161 161
 0.0099 -0.1249  0.4882 162 161 161
 0.0092 -0.1249  0.4882 162 161 161
 0.0084 -0.1249  0.4882 162 161 161
 0.0076 -0.1249  0.4884 162 161 161
 0.0068 -0.1250  0.4886 162 161 161
 0.0060 -0.1250  0.4886 162 161 161
 0.0052 -0.1250  0.4887 162 161 161
 0.0044 -0.1250  0.4888 162 161 161
 0.0036 -0.1251  0.4889 163 162 162
 0.0029 -0.1251  0.4889 162 161 161
 0.0021 -0.1251  0.4889 162 161 161
 0.0013 -0.1251  0.4889 163 162 162
 0.0005 -0.1250  0.4888 163 162 162
-0.0003 -0.1250  0.4888 162 162 162
-0.0011 -0.1250  0.4887 162 162 162
-0.0019 -0.1250  0.4887 161 161 161
-0.0027 -0.1250  0.4887 162 162 162
-0.0035 -0.1250  0.4887 162 162 162
-0.0042 -0.1250  0.4886 162 162 162
-0.0050 -0.1249  0.4884 163 162 162
-0.0058 -0.1249  0.4883 163 162 162
-0.0066 -0.1249  0.4883 163 162 162
-0.0074 -0.1249  0.4882 165 164 164
-0.0082 -0.1248  0.4879 165 164 164
-0.0090 -0.1248  0.4878 165 164 164
-0.0098 -0.1248  0.4878 165 164 164
-0.0105 -0.1247  0.4877 165 164 164
-0.0113 -0.1247  0.4877 165 164 164
-0.0121 -0.1247  0.4877 165 164 164
-0.0129 -0.1247  0.4877 162 162 162
-0.0137 -0.1247  0.4877 164 164 164
-0.0145 -0.1247  0.4877 164 164 164
-0.0153 -0.1247  0.4877 165 165 165
-0.0161 -0.1248  0.4879 165 165 165
-0.0169 -0.1248  0.4881 164 164 164
-0.0176 -0.1248  0.4881 164 164 164
-0.0184 -0.1249  0.4882 165 165 165
-0.0192 -0.1249  0.4884 165 165 165
-0.0200 -0.1250  0.4887 165 165 165
-0.0208 -0.1250  0.4887 165 165 165
-0.0216 -0.1250  0.4888 165 165 165
-0.0224 -0.1251  0.4889 166 166 166
-0.0232 -0.1251  0.4889 166 166 166
-0.0240 -0.1251  0.4891 167 167 167
-0.0248 -0.1251  0.4889 165 165 165
-0.0256 -0.1251  0.4889 166 166 166
-0.0263 -0.1250  0.4887 166 166 166
-0.0271 -0.1250  0.4887 167 167 167
-0.0279 -0.1250  0.4886 167 167 167
-0.0287 -0.1249  0.4884 167 167 167
-0.0295 -0.1249  0.4882 167 167 167
-0.0303 -0.1249  0.4882 167 167 167
-0.0310 -0.1248  0.4881 167 167 167
-0.0318 -0.1248  0.4881 167 167 167
-0.0326 -0.1248  0.4881 168 168 168
-0.0334 -0.1248  0.4881 167 167 167
-0.0342 -0.1248  0.4881 167 167 167
-0.0350 -0.1249  0.4882 168 168 168
-0.0358 -0.1249  0.4882 168 168 168
-0.0366 -0.1249  0.4882 168 168 168
-0.0374 -0.1249  0.4882 168 168 168
-0.0381 -0.1248  0.4881 168 168 168
-0.0389 -0.1248  0.4881 169 169 169
-0.0397 -0.1248  0.4881 169 169 169
-0.0405 -0.1248  0.4881 169 169 169
-0.0413 -0.1248  0.4881 169 169 169
-0.0421 -0.1249  0.4882 169 169 169
-0.0429 -0.1249  0.4882 171 171 171
-0.0437 -0.1249  0.4883 171 171 171
-0.0445 -0.1249  0.4883 172 172 172
-0.0453 -0.1249  0.4884 171 171 171
-0.0461 -0.1250  0.4887 171 171 171
-0.0469 -0.1250  0.4887 172 172 172
-0.0477 -0.1250  0.4887 172 172 172
-0.0484 -0.1250  0.4887 172 172 172
-0.0492 -0.1250  0.4887 173 173 173
-0.0500 -0.1249  0.4884 173 173 173
-0.0508 -0.1249  0.4884 173 173 173
-0.0515 -0.1249  0.4882 173 173 173
-0.0523 -0.1248  0.4879 173 173 173
-0.0531 -0.1247  0.4877 174 174 174
-0.0539 -0.1247  0.4877 174 174 174
-0.0546 -0.1247  0.4874 174 174 174
-0.0554 -0.1246  0.4872 174 174 176
-0.0561 -0.1246  0.4871 175 175 177
-0.0569 -0.1246  0.4871 175 175 177
-0.0577 -0.1245  0.4869 175 175 177
-0.0585 -0.1245  0.4869 176 176 178
-0.0593 -0.1245  0.4869 176 176 178
-0.0601 -0.1245  0.4869 178 178 180
-0.0608 -0.1245  0.4869 176 176 178
-0.0616 -0.1245  0.4869 176 176 178
-0.0624 -0.1246  0.4871 178 178 180
-0.0632 -0.1246  0.4872 178 178 180
-0.0640 -0.1246  0.4872 178 178 180
-0.0648 -0.1246  0.4873 179 179 181
-0.0656 -0.1246  0.4873 179 179 181
-0.0664 -0.1247  0.4874 180 180 182
-0.0672 -0.1247  0.4874 181 181 183
-0.0680 -0.1247  0.4874 181 181 183
-0.0688 -0.1247  0.4874 181 181 183
-0.0696 -0.1247  0.4874 181 181 183
-0.0704 -0.1247  0.4874 180 180 182
-0.0711 -0.1247  0.4874 181 181 183
-0.0719 -0.1247  0.4874 181 181 183
-0.0727 -0.1247  0.4874 183 183 185
-0.0735 -0.1247  0.4874 182 182 184
-0.0743 -0.1246  0.4873 183 183 185
-0.0751 -0.1246  0.4873 183 183 185
-0.0758 -0.1246  0.4873 185 185 187
-0.0766 -0.1246  0.4873 183 183 185
-0.0774 -0.1246  0.4873 184 187 188
-0.0782 -0.1246  0.4873 183 186 187
-0.0790 -0.1246  0.4873 183 186 187
-0.0798 -0.1246  0.4873 184 187 188
-0.0805 -0.1246  0.4872 184 187 188
-0.0813 -0.1246  0.4871 184 187 188
-0.0821 -0.1245  0.4869 184 187 188
-0.0829 -0.1245  0.4869 185 188 189
-0.0836 -0.1245  0.4868 185 188 189
-0.0844 -0.1245  0.4868 186 189 190
-0.0852 -0.1245  0.4867 186 189 190
-0.0860 -0.1245  0.4867 188 191 192
-0.0867 -0.1245  0.4867 188 191 192
-0.0876 -0.1245  0.4868 190 193 194
-0.0883 -0.1245  0.4868 190 193 194
-0.0892 -0.1245  0.4869 190 193 194
-0.0899 -0.1245  0.4869 190 193 194
-0.0907 -0.1245  0.4869 191 194 195
-0.0915 -0.1246  0.4871 191 194 195
-0.0923 -0.1246  0.4872 191 194 195
-0.0931 -0.1246  0.4872 191 194 195
-0.0939 -0.1246  0.4872 190 193 194
-0.0947 -0.1246  0.4872 188 191 192
-0.0955 -0.1246  0.4872 188 191 192
-0.0963 -0.1246  0.4872 188 191 192
-0.0970 -0.1245  0.4869 188 191 192
-0.0978 -0.1245  0.4867 187 190 191
-0.0985 -0.1244  0.4864 188 191 192
-0.0993 -0.1244  0.4864 190 193 194
-0.1000 -0.1244  0.4862 188 191 192
-0.1007 -0.1243  0.4859 188 191 190
-0.1015 -0.1242  0.4857 188 191 190
-0.1023 -0.1242  0.4857 187 190 189
-0.1030 -0.1242  0.4857 187 190 189
-0.1038 -0.1242  0.4856 187 190 189
-0.1046 -0.1242  0.4854 187 190 189
-0.1053 -0.1242  0.4854 187 190 189
-0.1061 -0.1241  0.4852 188 191 190
-0.1069 -0.1241  0.4852 188 191 190
-0.1076 -0.1241  0.4852 188 191 190
-0.1088 -0.1245  0.4869 187 190 189
-0.1096 -0.1245  0.4868 187 190 189
-0.1104 -0.1245  0.4868 188 191 190
-0.1112 -0.1245  0.4869 187 190 189
-0.1120 -0.1245  0.4869 188 191 190
-0.1127 -0.1245  0.4869 188 191 190
-0.1136 -0.1246  0.4872 187 190 189
-0.1144 -0.1246  0.4873 187 190 189
-0.1152 -0.1247  0.4876 187 190 189
-0.1160 -0.1247  0.4876 187 190 189
-0.1169 -0.1247  0.4877 187 190 189
-0.1177 -0.1248  0.4879 187 190 189
-0.1185 -0.1248  0.4881 187 190 189
-0.1193 -0.1248  0.4881 186 189 188
-0.1201 -0.1248  0.4881 186 189 188
-0.1208 -0.1248  0.4878 186 189 188
-0.1216 -0.1248  0.4878 186 189 188
-0.1223 -0.1247  0.4876 186 189 188
-0.1230 -0.1246  0.4872 186 189 188
-0.1238 -0.1245  0.4869 186 189 188
-0.1245 -0.1245  0.4869 186 189 188
-0.1253 -0.1245  0.4868 185 188 187
-0.1260 -0.1245  0.4867 185 188 187
-0.1268 -0.1244  0.4866 184 187 186
-0.1276 -0.1244  0.4866 185 188 187
-0.1284 -0.1244  0.4866 184 187 186
-0.1292 -0.1244  0.4866 184 187 186
-0.1300 -0.1245  0.4867 184 187 186
-0.1308 -0.1245  0.4868 183 186 185
-0.1316 -0.1245  0.4868 184 187 186
-0.1324 -0.1246  0.4871 183 186 185
-0.1333 -0.1246  0.4872 184 187 186
-0.1341 -0.1247  0.4874 183 186 185
-0.1349 -0.1247  0.4874 181 184 183
-0.1357 -0.1247  0.4874 181 184 183
-0.1364 -0.1246  0.4873 181 184 183
-0.1372 -0.1246  0.4873 180 183 182
-0.1379 -0.1246  0.4871 180 183 182
-0.1387 -0.1245  0.4869 180 183 182
-0.1394 -0.1245  0.4868 180 183 182
-0.1402 -0.1245  0.4868 180 183 184
-0.1410 -0.1245  0.4867 179 182 183
-0.1418 -0.1245  0.4867 179 182 183
-0.1426 -0.1245  0.4869 178 181 182
-0.1434 -0.1245  0.4869 178 181 182
-0.1442 -0.1245  0.4869 178 181 182
-0.1450 -0.1245  0.4869 178 181 182
-0.1458 -0.1245  0.4869 178 181 182
-0.1466 -0.1245  0.4869 178 181 182
-0.1473 -0.1245  0.4868 177 180 181
-0.1481 -0.1245  0.4868 177 180 179
-0.1489 -0.1245  0.4869 176 179 178
-0.1497 -0.1245  0.4869 177 180 179
-0.1505 -0.1245  0.4869 177 180 179
-0.1512 -0.1245  0.4868 176 179 178
-0.1520 -0.1245  0.4867 174 177 176
-0.1528 -0.1245  0.4867 174 177 176
-0.1535 -0.1244  0.4866 176 179 178
-0.1543 -0.1244  0.4864 176 179 178
-0.1550 -0.1244  0.4864 174 177 176
-0.1558 -0.1244  0.4863 174 177 176
-0.1565 -0.1244  0.4862 174 177 176
-0.1573 -0.1244  0.4862 176 179 178
-0.1581 -0.1244  0.4862 174 177 176
-0.1588 -0.1243  0.4861 174 177 176
-0.1596 -0.1243  0.4861 174 177 176
-0.1604 -0.1243  0.4859 174 177 176
-0.1612 -0.1243  0.4859 173 176 175
-0.1619 -0.1243  0.4858 173 176 175
-0.1626 -0.1242  0.4857 173 176 175
-0.1633 -0.1241  0.4853 175 175 175
-0.1641 -0.1241  0.4853 175 175 175
-0.1647 -0.1240  0.4849 176 176 176
-0.1654 -0.1240  0.4847 175 175 175
-0.1662 -0.1240  0.4847 175 175 175
-0.1669 -0.1239  0.4844 175 175 175
-0.1677 -0.1239  0.4844 175 175 175
-0.1691 -0.1244  0.4862 175 175 175
-0.1699 -0.1244  0.4862 175 175 175
-0.1706 -0.1243  0.4861 175 175 175
-0.1714 -0.1243  0.4859 174 174 174
-0.1721 -0.1243  0.4858 175 175 175
-0.1729 -0.1243  0.4858 174 174 174
-0.1736 -0.1242  0.4856 174 174 174
-0.1744 -0.1242  0.4856 174 174 174
-0.1751 -0.1242  0.4856 174 174 174
-0.1759 -0.1242  0.4856 174 174 174
-0.1767 -0.1242  0.4856 174 174 174
-0.1775 -0.1242  0.4857 174 174 174
-0.1783 -0.1242  0.4857 173 173 173
-0.1791 -0.1242  0.4857 173 173 173
-0.1799 -0.1243  0.4858 174 174 174
-0.1807 -0.1243  0.4858 173 173 173
-0.1815 -0.1243  0.4858 173 173 173
-0.1823 -0.1243  0.4858 171 174 173
-0.1830 -0.1242  0.4857 171 174 173
-0.1837 -0.1242  0.4854 171 174 173
-0.1845 -0.1242  0.4854 171 174 173
-0.1853 -0.1242  0.4854 174 174 174
-0.1860 -0.1241  0.4853 173 173 173
-0.1868 -0.1241  0.4853 173 173 173
-0.1876 -0.1241  0.4853 173 173 173
-0.1883 -0.1241  0.4852 173 173 173
-0.1891 -0.1241  0.4852 173 173 173
-0.1899 -0.1241  0.4852 173 173 173
-0.1907 -0.1241  0.4852 173 173 173
-0.1915 -0.1241  0.4852 173 173 173
-0.1923 -0.1241  0.4852 173 173 173
-0.1930 -0.1241  0.4852 172 172 172
-0.1939 -0.1242  0.4854 172 172 172
-0.1948 -0.1242  0.4857 172 172 172
-0.1957 -0.1243  0.4861 172 172 172
-0.1965 -0.1243  0.4861 173 173 173
-0.1975 -0.1244  0.4864 173 173 173
-0.1983 -0.1244  0.4866 173 173 173
-0.1991 -0.1245  0.4867 173 173 173
-0.1999 -0.1244  0.4866 173 173 173
-0.2006 -0.1244  0.4864 173 173 173
-0.2014 -0.1244  0.4864 173 173 173
-0.2021 -0.1244  0.4862 173 173 173
-0.2027 -0.1243  0.4859 174 174 174
-0.2034 -0.1242  0.4857 173 173 173
-0.2042 -0.1242  0.4857 172 172 172
-0.2049 -0.1242  0.4854 172 172 172
-0.2056 -0.1241  0.4853 173 173 173
-0.2064 -0.1241  0.4853 173 173 173
-0.2072 -0.1241  0.4853 173 173 175
-0.2080 -0.1241  0.4853 173 173 175
-0.2088 -0.1242  0.4854 173 173 175
-0.2102 -0.1245  0.4868 173 173 175
-0.2110 -0.1245  0.4868 173 173 175
-0.2118 -0.1245  0.4869 172 172 174
-0.2127 -0.1246  0.4871 173 173 175
-0.2135 -0.1246  0.4872 173 173 175
-0.2143 -0.1246  0.4872 173 173 175
-0.2152 -0.1247  0.4874 172 172 174
-0.2160 -0.1247  0.4876 172 172 174
-0.2168 -0.1247  0.4876 172 172 174
-0.2177 -0.1247  0.4877 170 173 174
-0.2184 -0.1247  0.4877 170 173 174
-0.2192 -0.1247  0.4877 170 173 174
-0.2200 -0.1247  0.4877 171 174 175
-0.2208 -0.1247  0.4877 171 174 175
-0.2216 -0.1247  0.4877 171 174 175
-0.2224 -0.1247  0.4877 171 174 173
-0.2232 -0.1247  0.4877 171 174 173
-0.2240 -0.1248  0.4878 170 173 172
-0.2248 -0.1248  0.4878 170 173 172
-0.2256 -0.1248  0.4878 170 173 172
-0.2264 -0.1248  0.4878 170 173 172
-0.2272 -0.1248  0.4879 171 174 175
-0.2280 -0.1248  0.4879 170 173 174
-0.2288 -0.1248  0.4879 170 173 174
-0.2296 -0.1248  0.4881 171 174 175
-0.2304 -0.1248  0.4881 171 174 175
-0.2312 -0.1248  0.4881 171 174 175
-0.2319 -0.1248  0.4879 170 173 174
-0.2327 -0.1248  0.4879 170 173 174
-0.2335 -0.1248  0.4879 171 174 175
-0.2343 -0.1248  0.4878 171 174 175
-0.2350 -0.1248  0.4878 171 174 175
-0.2358 -0.1247  0.4877 172 175 176
-0.2366 -0.1247  0.4877 171 174 175
-0.2373 -0.1247  0.4877 171 174 175
-0.2381 -0.1247  0.4877 171 174 175
-0.2389 -0.1247  0.4877 170 173 174
-0.2397 -0.1247  0.4877 171 174 175
-0.2405 -0.1247  0.4877 171 174 175
-0.2413 -0.1247  0.4877 171 174 175
-0.2421 -0.1248  0.4878 171 174 175
-0.2440 -0.1253  0.4899 171 174 173
-0.2448 -0.1253  0.4899 171 174 173
-0.2457 -0.1254  0.4902 171 174 173
-0.2466 -0.1254  0.4904 171 174 173
-0.2475 -0.1255  0.4906 171 174 173
-0.2482 -0.1255  0.4906 171 174 173
-0.2491 -0.1255  0.4907 172 175 174
-0.2500 -0.1256  0.4909 171 174 173
-0.2508 -0.1256  0.4909 171 174 175
-0.2517 -0.1256  0.4912 171 174 175
-0.2527 -0.1257  0.4916 171 174 175
-0.2535 -0.1257  0.4916 171 174 175
-0.2545 -0.1258  0.4919 171 174 175
-0.2554 -0.1259  0.4922 171 174 175
-0.2562 -0.1259  0.4922 172 175 176
-0.2571 -0.1260  0.4924 171 174 175
-0.2580 -0.1260  0.4926 171 174 175
 0.2245 -0.1271  0.4937 161 167 169
 0.2237 -0.1271  0.4937 161 167 169
 0.2226 -0.1269  0.4929 161 167 169
 0.2213 -0.1266  0.4918 161 167 169
 0.2205 -0.1266  0.4918 160 166 168
 0.2191 -0.1262  0.4904 160 166 168
 0.2174 -0.1257  0.4884 161 167 169
 0.2166 -0.1257  0.4884 161 167 169
 0.2152 -0.1254  0.4871 161 166 171
 0.2140 -0.1251  0.4861 160 165 170
 0.2132 -0.1251  0.4861 160 165 170
 0.2123 -0.1251  0.4859 160 165 170
 0.2115 -0.1250  0.4858 160 166 168
 0.2107 -0.1250  0.4858 160 166 168
 0.2099 -0.1250  0.4858 160 166 168
 0.2093 -0.1251  0.4861 158 164 166
 0.2087 -0.1252  0.4866 162 165 168
 0.2079 -0.1252  0.4866 162 165 168
 0.2074 -0.1254  0.4872 162 165 168
 0.2068 -0.1255  0.4877 160 163 166
 0.2063 -0.1257  0.4883 160 163 166
 0.2047 -0.1252  0.4863 160 163 166
 0.2039 -0.1252  0.4863 160 163 166
 0.2031 -0.1252  0.4864 160 163 166
 0.2024 -0.1252  0.4864 162 165 168
 0.2016 -0.1252  0.4864 160 163 166
 0.2008 -0.1252  0.4864 160 163 166
 0.1999 -0.1252  0.4863 160 163 166
 0.1991 -0.1251  0.4862 160 163 166
 0.1983 -0.1251  0.4862 160 163 166
 0.1975 -0.1251  0.4862 162 162 166
 0.1968 -0.1251  0.4862 162 162 166
 0.1960 -0.1251  0.4862 162 162 166
 0.1953 -0.1252  0.4864 162 162 166
 0.1945 -0.1252  0.4864 162 162 166
 0.1938 -0.1252  0.4866 162 162 166
 0.1931 -0.1253  0.4869 162 162 166
 0.1923 -0.1253  0.4869 161 161 165
 0.1918 -0.1255  0.4874 161 161 165
 0.1912 -0.1256  0.4879 161 161 165
 0.1905 -0.1257  0.4882 160 163 166
 0.1897 -0.1257  0.4882 159 162 165
 0.1890 -0.1257  0.4884 160 163 166
 0.1883 -0.1258  0.4887 159 162 165
 0.1875 -0.1258  0.4887 159 162 165
 0.1868 -0.1258  0.4888 159 162 165
 0.1860 -0.1258  0.4888 160 163 166
 0.1851 -0.1258  0.4887 160 163 166
 0.1844 -0.1258  0.4887 159 162 165
 0.1835 -0.1257  0.4886 160 163 166
 0.1827 -0.1257  0.4886 160 163 164
 0.1819 -0.1257  0.4884 158 161 162
 0.1811 -0.1257  0.4883 158 161 162
 0.1803 -0.1257  0.4883 157 160 161
 0.1794 -0.1256  0.4881 158 161 164
 0.1786 -0.1256  0.4879 159 162 165
 0.1777 -0.1255  0.4877 161 161 165
 0.1769 -0.1255  0.4877 160 160 164
 0.1753 -0.1250  0.4856 160 160 162
 0.1745 -0.1250  0.4856 160 160 162
 0.1738 -0.1250  0.4856 160 160 162
 0.1730 -0.1250  0.4856 160 160 162
 0.1723 -0.1251  0.4859 160 160 162
 0.1716 -0.1251  0.4862 160 160 162
 0.1711 -0.1253  0.4869 160 160 162
 0.1703 -0.1253  0.4869 160 160 162
 0.1698 -0.1255  0.4877 160 160 162
 0.1692 -0.1257  0.4882 159 159 161
 0.1684 -0.1257  0.4882 159 159 161
 0.1677 -0.1257  0.4884 160 160 162
 0.1670 -0.1258  0.4887 159 159 161
 0.1662 -0.1258  0.4887 159 159 161
 0.1654 -0.1258  0.4887 159 159 161
 0.1646 -0.1258  0.4887 159 159 161
 0.1638 -0.1258  0.4887 159 159 161
 0.1630 -0.1257  0.4886 159 159 161
 0.1622 -0.1257  0.4886 158 158 160
 0.1614 -0.1257  0.4886 158 158 160
 0.1607 -0.1258  0.4887 158 158 160
 0.1599 -0.1258  0.4887 158 158 160
 0.1591 -0.1258  0.4888 158 158 160
 0.1584 -0.1258  0.4888 158 158 160
 0.1576 -0.1258  0.4888 158 158 160
 0.1567 -0.1258  0.4887 157 157 159
 0.1558 -0.1257  0.4882 158 158 160
 0.1550 -0.1257  0.4882 158 158 160
 0.1541 -0.1256  0.4878 158 158 160
 0.1532 -0.1255  0.4876 157 157 159
 0.1524 -0.1255  0.4874 157 157 159
 0.1516 -0.1255  0.4874 157 157 159
 0.1508 -0.1254  0.4873 155 158 157
 0.1500 -0.1254  0.4872 156 159 158
 0.1492 -0.1254  0.4872 157 157 157
 0.1483 -0.1254  0.4871 157 157 157
 0.1476 -0.1254  0.4871 158 158 158
 0.1468 -0.1254  0.4871 158 158 158
 0.1460 -0.1254  0.4871 157 157 157
 0.1452 -0.1254  0.4871 157 157 157
 0.1445 -0.1254  0.4872 157 157 157
 0.1437 -0.1254  0.4872 155 155 155
 0.1429 -0.1254  0.4873 157 157 157
 0.1417 -0.1250  0.4858 157 157 157
 0.1409 -0.1250  0.4857 155 155 155
 0.1401 -0.1250  0.4857 155 155 155
 0.1393 -0.1250  0.4857 155 155 157
 0.1385 -0.1250  0.4857 157 157 159
 0.1377 -0.1250  0.4857 155 155 157
 0.1370 -0.1250  0.4858 157 157 159
 0.1362 -0.1250  0.4858 155 155 157
 0.1354 -0.1251  0.4859 155 155 157
 0.1347 -0.1251  0.4861 155 155 157
 0.1339 -0.1251  0.4862 155 155 157
 0.1332 -0.1251  0.4862 155 155 157
 0.1324 -0.1251  0.4862 157 157 159
 0.1316 -0.1251  0.4862 157 157 159
 0.1308 -0.1251  0.4862 155 155 157
 0.1300 -0.1251  0.4862 155 155 157
 0.1292 -0.1251  0.4862 155 155 157
 0.1285 -0.1251  0.4862 155 155 157
 0.1277 -0.1251  0.4862 155 155 157
 0.1269 -0.1252  0.4864 155 155 157
 0.1262 -0.1252  0.4866 157 157 159
 0.1254 -0.1253  0.4867 157 157 159
 0.1247 -0.1253  0.4867 155 155 157
 0.1239 -0.1253  0.4869 155 155 157
 0.1232 -0.1254  0.4871 154 154 156
 0.1224 -0.1254  0.4872 155 155 157
 0.1216 -0.1254  0.4871 155 155 157
 0.1208 -0.1254  0.4871 155 155 157
 0.1200 -0.1253  0.4869 157 157 159
 0.1192 -0.1253  0.4869 155 155 157
 0.1184 -0.1253  0.4869 155 155 157
 0.1176 -0.1253  0.4869 155 155 157
 0.1169 -0.1254  0.4871 155 155 157
 0.1161 -0.1254  0.4872 154 154 156
 0.1153 -0.1254  0.4872 155 155 157
 0.1146 -0.1254  0.4873 155 155 155
 0.1139 -0.1255  0.4876 155 155 155
 0.1132 -0.1256  0.4879 155 155 155
 0.1124 -0.1256  0.4879 155 155 155
 0.1117 -0.1257  0.4883 155 155 155
 0.1110 -0.1258  0.4887 155 155 155
 0.1102 -0.1258  0.4889 156 155 155
 0.1094 -0.1258  0.4889 156 155 155
 0.1087 -0.1259  0.4892 158 157 157
 0.1079 -0.1259  0.4893 155 154 154
 0.1072 -0.1259  0.4893 155 155 155
 0.1064 -0.1259  0.4893 154 154 154
 0.1056 -0.1259  0.4893 155 155 155
 0.1048 -0.1259  0.4893 154 154 154
 0.1040 -0.1259  0.4893 154 154 154
 0.1032 -0.1259  0.4893 155 155 155
 0.1024 -0.1259  0.4893 154 154 154
 0.1016 -0.1260  0.4894 154 154 154
 0.1009 -0.1260  0.4896 155 155 155
 0.0998 -0.1256  0.4881 155 155 155
 0.0990 -0.1256  0.4881 155 155 155
 0.0982 -0.1256  0.4881 154 154 154
 0.0974 -0.1256  0.4881 155 155 155
 0.0966 -0.1256  0.4878 154 154 154
 0.0958 -0.1255  0.4877 154 154 154
 0.0950 -0.1255  0.4877 155 155 155
 0.0941 -0.1255  0.4874 154 154 154
 0.0933 -0.1254  0.4873 154 154 154
 0.0925 -0.1254  0.4872 155 155 155
 0.0917 -0.1254  0.4872 154 154 154
 0.0909 -0.1254  0.4871 154 154 154
 0.0901 -0.1253  0.4869 154 154 154
 0.0893 -0.1253  0.4869 155 155 151
 0.0886 -0.1254  0.4871 155 155 151
 0.0878 -0.1254  0.4871 155 155 151
 0.0870 -0.1254  0.4871 155 155 151
 0.0862 -0.1254  0.4872 156 156 152
 0.0855 -0.1254  0.4873 156 156 152
 0.0847 -0.1254  0.4873 155 155 151
 0.0839 -0.1255  0.4874 156 156 152
 0.0832 -0.1255  0.4876 155 155 151
 0.0824 -0.1255  0.4876 156 156 152
 0.0816 -0.1255  0.4876 155 155 151
 0.0808 -0.1255  0.4876 155 155 151
 0.0800 -0.1255  0.4876 155 155 151
 0.0792 -0.1255  0.4876 156 156 152
 0.0784 -0.1255  0.4876 155 155 151
 0.0777 -0.1255  0.4877 155 155 151
 0.0769 -0.1255  0.4877 155 155 151
 0.0761 -0.1255  0.4877 156 156 152
 0.0753 -0.1256  0.4879 155 155 151
 0.0745 -0.1256  0.4879 155 155 151
 0.0738 -0.1256  0.4881 154 155 151
 0.0730 -0.1257  0.4883 154 155 151
 0.0723 -0.1257  0.4884 154 155 151
 0.0715 -0.1257  0.4884 155 156 152
 0.0707 -0.1258  0.4887 155 155 155
 0.0699 -0.1258  0.4887 155 155 155
 0.0691 -0.1258  0.4887 155 155 155
 0.0683 -0.1257  0.4886 155 155 155
 0.0675 -0.1257  0.4884 155 155 155
 0.0667 -0.1257  0.4882 155 155 155
 0.0659 -0.1257  0.4882 155 155 155
 0.0651 -0.1256  0.4879 157 157 157
 0.0643 -0.1255  0.4877 155 155 155
 0.0634 -0.1254  0.4873 155 155 155
 0.0626 -0.1254  0.4873 157 157 157
 0.0618 -0.1254  0.4871 157 157 157
 0.0610 -0.1253  0.4869 156 156 152
 0.0602 -0.1253  0.4867 158 158 154
 0.0594 -0.1253  0.4867 158 158 154
 0.0586 -0.1252  0.4866 158 158 154
 0.0578 -0.1252  0.4866 158 158 154
 0.0571 -0.1253  0.4867 158 158 154
 0.0563 -0.1253  0.4868 158 158 154
 0.0555 -0.1253  0.4868 158 158 154
 0.0548 -0.1254  0.4872 159 159 155
 0.0540 -0.1255  0.4874 159 159 155
 0.0532 -0.1255  0.4877 158 158 154
 0.0525 -0.1255  0.4877 158 158 154
 0.0517 -0.1256  0.4879 158 158 154
 0.0509 -0.1257  0.4882 158 158 154
 0.0502 -0.1257  0.4884 158 158 154
 0.0494 -0.1257  0.4886 159 159 155
 0.0486 -0.1257  0.4886 158 158 154
 0.0478 -0.1258  0.4887 159 159 155
 0.0471 -0.1258  0.4889 159 159 155
 0.0463 -0.1259  0.4891 159 159 155
 0.0455 -0.1259  0.4891 159 159 155
 0.0447 -0.1259  0.4892 159 159 155
 0.0439 -0.1259  0.4891 159 158 158
 0.0431 -0.1259  0.4891 159 158 158
 0.0423 -0.1258  0.4889 159 158 158
 0.0415 -0.1258  0.4888 159 158 158
 0.0407 -0.1258  0.4887 158 157 157
 0.0399 -0.1258  0.4887 159 158 158
 0.0392 -0.1258  0.4887 158 158 158
 0.0384 -0.1258  0.4887 158 158 158
 0.0376 -0.1258  0.4888 158 158 158
 0.0368 -0.1258  0.4889 158 158 158
 0.0360 -0.1258  0.4889 159 158 158
 0.0352 -0.1259  0.4891 159 158 158
 0.0345 -0.1259  0.4892 160 159 159
 0.0337 -0.1259  0.4892 160 159 159
 0.0329 -0.1259  0.4892 160 159 159
 0.0321 -0.1259  0.4892 159 158 158
 0.0313 -0.1259  0.4892 160 159 159
 0.0305 -0.1259  0.4891 160 159 159
 0.0297 -0.1259  0.4891 160 159 159
 0.0289 -0.1258  0.4889 160 159 159
 0.0280 -0.1253  0.4869 160 159 159
 0.0272 -0.1253  0.4869 160 159 159
 0.0264 -0.1253  0.4869 160 159 159
 0.0256 -0.1253  0.4869 160 159 159
 0.0249 -0.1253  0.4869 160 159 159
 0.0241 -0.1253  0.4869 160 159 159
 0.0233 -0.1253  0.4869 160 159 161
 0.0225 -0.1253  0.4869 160 159 161
 0.0217 -0.1253  0.4869 162 161 161
 0.0209 -0.1254  0.4872 161 160 160
 0.0202 -0.1254  0.4872 161 160 160
 0.0194 -0.1254  0.4872 162 161 161
 0.0186 -0.1254  0.4872 162 161 161
 0.0178 -0.1254  0.4872 162 161 161
 0.0170 -0.1254  0.4872 162 161 161
 0.0162 -0.1254  0.4872 162 161 161
 0.0154 -0.1254  0.4872 161 160 160
 0.0146 -0.1254  0.4872 161 160 160
 0.0139 -0.1254  0.4871 162 161 161
 0.0131 -0.1254  0.4871 161 160 160
 0.0123 -0.1253  0.4869 162 161 161
 0.0115 -0.1253  0.4868 162 161 161
 0.0107 -0.1253  0.4867 162 161 161
 0.0099 -0.1253  0.4867 162 161 161
 0.0091 -0.1253  0.4867 162 161 161
 0.0083 -0.1253  0.4867 162 161 161
 0.0076 -0.1253  0.4867 162 161 161
 0.0068 -0.1253  0.4869 162 161 161
 0.0060 -0.1253  0.4869 162 161 161
 0.0052 -0.1253  0.4869 162 161 161
 0.0044 -0.1254  0.4871 162 161 161
 0.0036 -0.1254  0.4872 162 161 161
 0.0028 -0.1254  0.4872 162 161 161
 0.0021 -0.1254  0.4872 162 161 161
 0.0013 -0.1254  0.4873 162 162 162
 0.0005 -0.1255  0.4874 162 162 162
-0.0003 -0.1255  0.4874 162 162 162
-0.0011 -0.1255  0.4874 162 162 162
-0.0019 -0.1255  0.4874 161 161 161
-0.0027 -0.1254  0.4873 162 162 162
-0.0034 -0.1254  0.4873 162 162 162
-0.0042 -0.1254  0.4873 162 162 162
-0.0050 -0.1254  0.4872 163 162 162
-0.0058 -0.1254  0.4871 163 162 162
-0.0066 -0.1254  0.4871 165 164 164
-0.0074 -0.1253  0.4868 165 164 164
-0.0082 -0.1253  0.4867 165 164 164
-0.0089 -0.1252  0.4864 165 164 164
-0.0097 -0.1252  0.4864 165 164 164
-0.0105 -0.1251  0.4862 165 164 164
-0.0113 -0.1251  0.4861 165 164 164
-0.0121 -0.1251  0.4859 165 164 164
-0.0129 -0.1251  0.4859 165 164 164
-0.0136 -0.1251  0.4859 165 164 164
-0.0144 -0.1251  0.4861 165 164 164
-0.0152 -0.1251  0.4862 166 165 165
-0.0160 -0.1252  0.4864 165 164 164
-0.0168 -0.1252  0.4866 165 164 164
-0.0176 -0.1252  0.4866 166 165 165
-0.0184 -0.1253  0.4867 166 165 165
-0.0192 -0.1253  0.4869 165 165 165
-0.0200 -0.1254  0.4872 165 165 165
-0.0208 -0.1254  0.4872 165 165 165
-0.0215 -0.1254  0.4872 165 165 165
-0.0223 -0.1255  0.4874 166 166 166
-0.0231 -0.1255  0.4874 166 166 166
-0.0239 -0.1255  0.4874 166 166 166
-0.0247 -0.1254  0.4873 165 165 165
-0.0255 -0.1254  0.4873 166 166 166
-0.0263 -0.1254  0.4871 166 166 166
-0.0270 -0.1254  0.4871 166 166 166
-0.0278 -0.1253  0.4869 167 167 167
-0.0286 -0.1253  0.4868 167 167 167
-0.0294 -0.1253  0.4867 167 167 167
-0.0302 -0.1253  0.4867 168 168 168
-0.0309 -0.1252  0.4864 167 167 167
-0.0317 -0.1252  0.4864 168 168 168
-0.0325 -0.1252  0.4864 168 168 168
-0.0333 -0.1252  0.4864 167 167 167
-0.0341 -0.1252  0.4864 168 168 168
-0.0349 -0.1252  0.4864 168 168 168
-0.0356 -0.1252  0.4864 168 168 168
-0.0364 -0.1252  0.4864 168 168 168
-0.0372 -0.1252  0.4864 168 168 168
-0.0380 -0.1252  0.4864 168 168 168
-0.0388 -0.1252  0.4863 169 169 169
-0.0396 -0.1252  0.4863 169 169 169
-0.0404 -0.1252  0.4863 168 168 168
-0.0411 -0.1251  0.4862 169 169 169
-0.0419 -0.1251  0.4862 169 169 169
-0.0427 -0.1252  0.4863 169 169 169
-0.0435 -0.1252  0.4863 171 171 171
-0.0443 -0.1252  0.4863 171 171 171
-0.0451 -0.1252  0.4864 171 171 171
-0.0459 -0.1253  0.4867 171 171 171
-0.0467 -0.1253  0.4868 172 172 172
-0.0475 -0.1253  0.4868 171 171 173
-0.0483 -0.1253  0.4868 172 172 174
-0.0490 -0.1253  0.4867 172 172 174
-0.0498 -0.1253  0.4867 172 172 174
-0.0506 -0.1252  0.4866 173 173 175
-0.0513 -0.1252  0.4863 173 173 175
-0.0521 -0.1251  0.4861 173 173 175
-0.0529 -0.1251  0.4861 174 174 176
-0.0536 -0.1250  0.4858 174 174 176
-0.0544 -0.1250  0.4856 174 174 176
-0.0552 -0.1249  0.4854 175 175 177
-0.0560 -0.1249  0.4854 175 175 177
-0.0567 -0.1249  0.4853 175 175 177
-0.0575 -0.1249  0.4853 175 175 177
-0.0583 -0.1249  0.4853 176 176 178
-0.0591 -0.1249  0.4854 176 176 178
-0.0599 -0.1249  0.4854 178 178 180
-0.0607 -0.1249  0.4854 176 176 178
-0.0614 -0.1249  0.4854 178 178 180
-0.0623 -0.1250  0.4857 178 178 180
-0.0630 -0.1250  0.4857 178 178 180
-0.0638 -0.1250  0.4857 178 178 180
-0.0646 -0.1250  0.4858 179 179 181
-0.0654 -0.1251  0.4859 179 179 181
-0.0662 -0.1251  0.4859 180 180 182
-0.0670 -0.1251  0.4859 181 181 183
-0.0678 -0.1251  0.4859 181 181 183
-0.0686 -0.1251  0.4859 181 181 183
-0.0694 -0.1251  0.4859 181 181 183
-0.0701 -0.1251  0.4859 180 180 182
-0.0709 -0.1250  0.4858 180 180 182
-0.0717 -0.1250  0.4857 181 181 183
-0.0725 -0.1250  0.4857 182 182 184
-0.0732 -0.1250  0.4856 182 182 184
-0.0740 -0.1249  0.4854 182 182 184
-0.0748 -0.1249  0.4854 183 183 185
-0.0755 -0.1249  0.4853 185 185 187
-0.0763 -0.1249  0.4853 183 183 185
-0.0771 -0.1249  0.4853 183 186 187
-0.0779 -0.1249  0.4854 183 186 187
-0.0787 -0.1249  0.4854 183 186 187
-0.0795 -0.1250  0.4856 183 186 187
-0.0803 -0.1250  0.4856 184 187 188
-0.0810 -0.1249  0.4854 184 187 188
-0.0818 -0.1249  0.4853 184 187 188
-0.0826 -0.1249  0.4853 185 188 189
-0.0834 -0.1249  0.4853 185 188 189
-0.0844 -0.1253  0.4868 186 189 190
-0.0852 -0.1253  0.4867 186 189 190
-0.0860 -0.1253  0.4867 187 190 191
-0.0867 -0.1253  0.4867 188 191 192
-0.0876 -0.1253  0.4868 188 191 192
-0.0883 -0.1253  0.4868 190 193 194
-0.0892 -0.1253  0.4869 190 193 194
-0.0899 -0.1253  0.4869 190 193 196
-0.0907 -0.1253  0.4869 191 194 197
-0.0915 -0.1254  0.4871 191 194 197
-0.0923 -0.1254  0.4872 191 194 197
-0.0931 -0.1254  0.4872 190 193 194
-0.0939 -0.1254  0.4872 190 193 194
-0.0947 -0.1254  0.4872 188 191 192
-0.0955 -0.1254  0.4872 188 191 192
-0.0963 -0.1254  0.4872 188 191 192
-0.0970 -0.1253  0.4869 188 191 192
-0.0978 -0.1253  0.4867 187 190 191
-0.0985 -0.1252  0.4864 188 191 192
-0.0993 -0.1252  0.4864 187 190 191
-0.1000 -0.1251  0.4862 188 191 192
-0.1007 -0.1251  0.4859 188 191 192
-0.1015 -0.1250  0.4857 188 191 192
-0.1023 -0.1250  0.4857 187 190 191
-0.1030 -0.1250  0.4857 187 190 191
-0.1038 -0.1250  0.4856 188 191 192
-0.1046 -0.1249  0.4854 187 190 191
-0.1053 -0.1249  0.4854 187 190 191
-0.1061 -0.1249  0.4852 188 191 192
-0.1069 -0.1249  0.4852 188 191 192
-0.1076 -0.1248  0.4851 188 191 192
-0.1084 -0.1248  0.4851 187 190 191
-0.1091 -0.1248  0.4849 187 190 191
-0.1099 -0.1248  0.4849 188 191 192
-0.1107 -0.1248  0.4851 187 190 191
-0.1115 -0.1248  0.4851 187 190 189
-0.1123 -0.1248  0.4851 188 191 190
-0.1131 -0.1249  0.4852 187 190 189
-0.1140 -0.1249  0.4854 186 189 188
-0.1148 -0.1250  0.4857 186 189 188
-0.1156 -0.1250  0.4857 186 189 188
-0.1164 -0.1250  0.4858 186 189 188
-0.1172 -0.1251  0.4861 186 189 188
-0.1181 -0.1251  0.4862 186 189 188
-0.1188 -0.1251  0.4862 186 189 188
-0.1196 -0.1251  0.4862 186 189 188
-0.1204 -0.1251  0.4859 186 189 188
-0.1211 -0.1251  0.4859 186 189 188
-0.1219 -0.1250  0.4857 186 189 188
-0.1226 -0.1249  0.4854 186 189 188
-0.1233 -0.1249  0.4852 186 189 188
-0.1241 -0.1249  0.4852 186 189 188
-0.1248 -0.1248  0.4851 185 188 187
-0.1256 -0.1248  0.4849 185 188 187
-0.1263 -0.1248  0.4847 184 187 186
-0.1271 -0.1248  0.4847 184 187 186
-0.1279 -0.1248  0.4847 184 187 186
-0.1287 -0.1248  0.4847 184 187 186
-0.1295 -0.1248  0.4848 184 187 186
-0.1303 -0.1248  0.4849 183 186 185
-0.1311 -0.1248  0.4849 184 187 186
-0.1319 -0.1248  0.4851 183 186 185
-0.1327 -0.1249  0.4852 184 187 186
-0.1335 -0.1249  0.4853 183 186 185
-0.1343 -0.1249  0.4852 181 184 183
-0.1351 -0.1249  0.4852 181 184 183
-0.1357 -0.1248  0.4848 181 184 183
-0.1365 -0.1248  0.4848 181 184 183
-0.1372 -0.1247  0.4846 181 184 183
-0.1380 -0.1247  0.4844 180 183 182
-0.1388 -0.1247  0.4844 180 183 182
-0.1395 -0.1247  0.4843 180 183 182
-0.1403 -0.1247  0.4843 180 183 182
-0.1411 -0.1247  0.4844 179 182 181
-0.1419 -0.1247  0.4846 179 182 181
-0.1427 -0.1247  0.4846 178 181 180
-0.1436 -0.1248  0.4848 178 181 180
-0.1444 -0.1248  0.4849 178 181 182
-0.1452 -0.1248  0.4849 178 181 182
-0.1460 -0.1248  0.4849 178 181 182
-0.1467 -0.1248  0.4849 177 180 181
-0.1475 -0.1248  0.4849 177 180 181
-0.1483 -0.1248  0.4849 176 179 180
-0.1491 -0.1248  0.4849 177 180 179
-0.1499 -0.1248  0.4849 177 180 179
-0.1506 -0.1248  0.4848 176 179 178
-0.1514 -0.1248  0.4848 176 179 178
-0.1521 -0.1248  0.4847 178 178 178
-0.1528 -0.1247  0.4844 178 178 178
-0.1536 -0.1247  0.4843 178 178 178
-0.1544 -0.1247  0.4843 176 176 176
-0.1551 -0.1247  0.4843 174 177 178
-0.1565 -0.1251  0.4862 174 177 178
-0.1573 -0.1251  0.4862 176 179 180
-0.1581 -0.1251  0.4862 176 179 180
-0.1588 -0.1251  0.4861 176 179 178
-0.1596 -0.1251  0.4861 174 177 176
-0.1604 -0.1251  0.4859 174 177 176
-0.1612 -0.1251  0.4859 173 176 175
-0.1619 -0.1250  0.4858 174 177 176
-0.1626 -0.1250  0.4857 174 177 176
-0.1633 -0.1249  0.4853 173 176 175
-0.1641 -0.1249  0.4853 173 176 175
-0.1647 -0.1248  0.4849 174 177 176
-0.1654 -0.1248  0.4847 173 176 175
-0.1662 -0.1248  0.4847 173 176 175
-0.1669 -0.1247  0.4844 173 176 175
-0.1676 -0.1246  0.4842 174 177 176
-0.1684 -0.1246  0.4841 173 176 175
-0.1691 -0.1246  0.4841 173 176 175
-0.1699 -0.1246  0.4839 173 176 175
-0.1706 -0.1245  0.4837 172 175 174
-0.1713 -0.1245  0.4837 173 176 175
-0.1721 -0.1245  0.4836 172 175 174
-0.1728 -0.1244  0.4833 172 175 174
-0.1736 -0.1244  0.4833 174 174 174
-0.1744 -0.1244  0.4834 174 174 174
-0.1751 -0.1244  0.4833 174 174 174
