ply
format ascii 1.0
element vertex 1328
property float x
property float y
property float z
property uchar red
property uchar green
property uchar blue
end_header
 0.0835 -0.1381  0.4290 154 154 156
 0.0829 -0.1382  0.4291 156 155 157
 0.0822 -0.1382  0.4291 155 154 156
 0.0815 -0.1382  0.4292 155 154 156
 0.0808 -0.1382  0.4292 155 154 156
 0.0802 -0.1382  0.4293 155 154 156
 0.0795 -0.1382  0.4293 156 155 157
 0.0788 -0.1382  0.4293 156 155 157
 0.0780 -0.1382  0.4292 156 155 157
 0.0774 -0.1382  0.4292 156 155 157
 0.0767 -0.1382  0.4292 156 155 157
 0.0759 -0.1381  0.4290 156 155 157
 0.0752 -0.1381  0.4288 155 154 156
 0.0745 -0.1381  0.4288 155 154 156
 0.0738 -0.1380  0.4287 155 154 156
 0.0731 -0.1380  0.4287 155 154 156
 0.0724 -0.1380  0.4287 155 154 156
 0.0717 -0.1380  0.4287 155 154 156
 0.0710 -0.1380  0.4287 155 154 156
 0.0704 -0.1381  0.4288 156 155 157
 0.0697 -0.1381  0.4290 155 154 156
 0.0690 -0.1382  0.4292 156 155 157
 0.0683 -0.1382  0.4292 155 154 156
 0.0677 -0.1382  0.4293 155 154 156
 0.0670 -0.1383  0.4295 156 155 157
 0.0663 -0.1383  0.4295 155 154 156
 0.0656 -0.1383  0.4295 156 155 157
 0.0649 -0.1383  0.4295 156 155 157
 0.0642 -0.1383  0.4296 155 154 156
 0.0636 -0.1384  0.4297 156 155 157
 0.0629 -0.1384  0.4297 156 155 157
 0.0622 -0.1384  0.4300 155 154 156
 0.0614 -0.1381  0.4288 155 154 156
 0.0607 -0.1381  0.4288 156 155 157
 0.0600 -0.1381  0.4288 155 154 156
 0.0593 -0.1381  0.4290 156 155 157
 0.0586 -0.1381  0.4290 156 155 157
 0.0579 -0.1381  0.4290 155 154 156
 0.0572 -0.1381  0.4290 156 155 157
 0.0565 -0.1381  0.4290 155 155 157
 0.0558 -0.1381  0.4290 155 155 157
 0.0551 -0.1381  0.4290 156 155 157
 0.0545 -0.1381  0.4290 156 155 157
 0.0538 -0.1381  0.4290 155 154 156
 0.0530 -0.1380  0.4287 156 155 157
 0.0523 -0.1380  0.4287 156 155 157
 0.0516 -0.1380  0.4286 156 155 157
 0.0509 -0.1379  0.4285 156 155 157
 0.0502 -0.1379  0.4283 156 155 157
 0.0495 -0.1379  0.4283 155 155 157
 0.0488 -0.1379  0.4282 155 155 157
 0.0481 -0.1379  0.4282 155 155 157
 0.0475 -0.1379  0.4283 155 155 157
 0.0468 -0.1379  0.4283 157 157 159
 0.0461 -0.1379  0.4283 157 157 159
 0.0454 -0.1379  0.4285 157 157 159
 0.0447 -0.1379  0.4285 157 157 159
 0.0440 -0.1380  0.4287 157 157 157
 0.0433 -0.1380  0.4287 157 157 157
 0.0427 -0.1381  0.4288 157 157 157
 0.0420 -0.1382  0.4291 157 157 157
 0.0413 -0.1382  0.4292 157 157 157
 0.0406 -0.1382  0.4292 157 157 157
 0.0399 -0.1382  0.4292 157 157 157
 0.0392 -0.1382  0.4292 157 157 157
 0.0385 -0.1382  0.4292 158 158 158
 0.0379 -0.1382  0.4292 157 157 157
 0.0371 -0.1381  0.4290 157 157 157
 0.0364 -0.1381  0.4288 157 157 157
 0.0357 -0.1381  0.4288 157 157 157
 0.0350 -0.1380  0.4286 155 155 155
 0.0343 -0.1379  0.4285 157 157 157
 0.0336 -0.1379  0.4285 157 157 157
 0.0329 -0.1379  0.4285 155 155 155
 0.0323 -0.1379  0.4285 157 157 157
 0.0316 -0.1380  0.4286 157 157 157
 0.0309 -0.1380  0.4287 157 157 157
 0.0302 -0.1381  0.4288 157 157 157
 0.0295 -0.1381  0.4288 157 157 157
 0.0288 -0.1381  0.4288 157 157 157
 0.0281 -0.1380  0.4286 158 158 158
 0.0274 -0.1379  0.4285 158 158 158
 0.0267 -0.1379  0.4285 158 158 158
 0.0260 -0.1379  0.4282 157 157 157
 0.0253 -0.1378  0.4281 157 157 157
 0.0246 -0.1378  0.4280 158 158 158
 0.0239 -0.1378  0.4280 158 158 158
 0.0232 -0.1378  0.4280 157 157 157
 0.0225 -0.1378  0.4280 157 157 157
 0.0218 -0.1378  0.4280 158 158 158
 0.0212 -0.1378  0.4280 158 158 158
 0.0205 -0.1378  0.4280 158 158 158
 0.0198 -0.1378  0.4280 158 158 158
 0.0191 -0.1378  0.4280 158 158 158
 0.0184 -0.1378  0.4280 158 158 158
 0.0177 -0.1378  0.4280 158 158 158
 0.0170 -0.1378  0.4280 158 158 158
 0.0163 -0.1378  0.4281 158 158 158
 0.0156 -0.1378  0.4281 158 158 158
 0.0149 -0.1378  0.4281 158 158 158
 0.0142 -0.1378  0.4280 158 158 158
 0.0136 -0.1378  0.4280 158 158 158
 0.0129 -0.1378  0.4281 158 158 158
 0.0122 -0.1378  0.4281 158 158 158
 0.0115 -0.1378  0.4281 159 159 159
 0.0108 -0.1378  0.4281 158 158 158
 0.0101 -0.1379  0.4282 158 158 158
 0.0094 -0.1379  0.4282 159 159 159
 0.0087 -0.1379  0.4282 159 159 159
 0.0080 -0.1379  0.4282 159 159 159
 0.0073 -0.1379  0.4282 159 159 159
 0.0066 -0.1379  0.4282 159 159 159
 0.0060 -0.1379  0.4282 159 159 159
 0.0053 -0.1378  0.4281 159 159 159
 0.0046 -0.1378  0.4281 159 159 159
 0.0039 -0.1378  0.4281 159 159 159
 0.0032 -0.1378  0.4280 159 159 159
 0.0025 -0.1378  0.4280 160 160 160
 0.0018 -0.1378  0.4280 159 159 159
 0.0011 -0.1378  0.4280 159 159 159
 0.0004 -0.1378  0.4280 159 159 159
-0.0003 -0.1378  0.4280 159 159 159
-0.0010 -0.1377  0.4278 159 159 159
-0.0016 -0.1377  0.4278 160 160 160
-0.0023 -0.1377  0.4278 159 159 159
-0.0030 -0.1377  0.4277 159 159 159
-0.0037 -0.1377  0.4277 159 159 159
-0.0044 -0.1377  0.4277 160 160 160
-0.0051 -0.1377  0.4277 159 159 159
-0.0058 -0.1377  0.4276 160 160 162
-0.0065 -0.1377  0.4276 160 160 162
-0.0072 -0.1377  0.4277 160 160 162
-0.0079 -0.1377  0.4277 160 160 162
-0.0086 -0.1377  0.4277 160 160 162
-0.0092 -0.1377  0.4278 161 161 163
-0.0099 -0.1378  0.4280 161 161 163
-0.0106 -0.1378  0.4280 161 161 163
-0.0113 -0.1378  0.4280 161 161 163
-0.0120 -0.1378  0.4280 161 161 163
-0.0127 -0.1377  0.4278 160 160 162
-0.0134 -0.1377  0.4278 161 161 163
-0.0141 -0.1377  0.4277 161 161 163
-0.0148 -0.1377  0.4277 161 161 163
-0.0155 -0.1376  0.4275 161 161 163
-0.0161 -0.1376  0.4275 161 161 163
-0.0168 -0.1376  0.4273 161 161 163
-0.0175 -0.1375  0.4272 162 162 164
-0.0182 -0.1375  0.4270 161 161 163
-0.0189 -0.1375  0.4270 162 162 164
-0.0196 -0.1374  0.4268 162 162 164
-0.0203 -0.1374  0.4268 162 162 164
-0.0209 -0.1374  0.4268 160 163 164
-0.0216 -0.1374  0.4268 160 163 164
-0.0223 -0.1374  0.4268 160 163 164
-0.0230 -0.1374  0.4268 160 163 164
-0.0237 -0.1374  0.4268 160 163 164
-0.0244 -0.1374  0.4268 160 163 164
-0.0251 -0.1374  0.4267 162 162 164
-0.0258 -0.1374  0.4267 164 164 166
-0.0264 -0.1374  0.4267 164 164 166
-0.0271 -0.1374  0.4267 164 164 166
-0.0278 -0.1374  0.4267 164 164 166
-0.0285 -0.1374  0.4267 164 164 166
-0.0292 -0.1374  0.4268 164 164 166
-0.0299 -0.1374  0.4268 164 164 166
-0.0306 -0.1374  0.4268 164 164 166
-0.0313 -0.1374  0.4267 164 164 166
-0.0320 -0.1374  0.4267 165 165 167
-0.0326 -0.1374  0.4267 165 165 167
-0.0333 -0.1374  0.4267 165 165 167
-0.0340 -0.1373  0.4266 165 165 167
-0.0347 -0.1373  0.4266 163 166 167
-0.0354 -0.1374  0.4267 163 166 167
-0.0361 -0.1374  0.4267 163 166 167
-0.0368 -0.1374  0.4267 164 167 168
-0.0375 -0.1374  0.4267 164 167 168
-0.0381 -0.1373  0.4265 164 167 168
-0.0388 -0.1373  0.4265 164 167 168
-0.0395 -0.1373  0.4265 164 167 168
-0.0402 -0.1373  0.4263 164 167 168
-0.0409 -0.1373  0.4263 164 167 168
-0.0416 -0.1373  0.4263 164 167 168
-0.0423 -0.1373  0.4263 165 168 169
-0.0429 -0.1373  0.4263 165 168 169
-0.0436 -0.1373  0.4263 164 167 168
-0.0443 -0.1373  0.4263 164 167 168
-0.0450 -0.1373  0.4263 164 167 168
-0.0457 -0.1372  0.4262 165 168 169
-0.0464 -0.1372  0.4262 165 168 169
-0.0471 -0.1372  0.4262 165 168 169
-0.0478 -0.1372  0.4262 165 168 169
-0.0484 -0.1372  0.4262 166 169 170
-0.0491 -0.1372  0.4262 165 168 169
-0.0498 -0.1372  0.4262 166 169 170
-0.0505 -0.1372  0.4262 166 169 170
-0.0512 -0.1372  0.4262 166 169 170
-0.0519 -0.1372  0.4261 165 168 169
-0.0525 -0.1371  0.4260 166 169 170
-0.0532 -0.1371  0.4260 166 169 170
-0.0539 -0.1371  0.4260 166 169 170
-0.0546 -0.1371  0.4258 167 170 171
-0.0553 -0.1371  0.4257 166 169 170
-0.0559 -0.1371  0.4257 166 169 170
-0.0566 -0.1370  0.4256 166 169 170
-0.0573 -0.1370  0.4255 167 170 171
-0.0580 -0.1369  0.4253 167 170 171
-0.0586 -0.1369  0.4253 167 170 171
-0.0593 -0.1369  0.4252 167 170 171
-0.0600 -0.1369  0.4252 167 170 171
-0.0607 -0.1369  0.4252 169 172 173
-0.0614 -0.1369  0.4252 169 172 173
-0.0620 -0.1369  0.4251 169 172 173
-0.0627 -0.1369  0.4251 170 173 174
-0.0634 -0.1368  0.4250 170 173 174
-0.0641 -0.1368  0.4250 170 173 174
-0.0648 -0.1368  0.4250 170 173 174
-0.0655 -0.1368  0.4250 169 172 173
-0.0661 -0.1368  0.4250 170 173 174
-0.0668 -0.1368  0.4250 170 173 174
-0.0675 -0.1368  0.4250 171 174 175
-0.0682 -0.1368  0.4250 171 174 175
-0.0689 -0.1368  0.4250 172 175 176
-0.0696 -0.1368  0.4250 172 175 176
-0.0703 -0.1368  0.4250 172 175 176
-0.0709 -0.1368  0.4248 172 175 176
-0.0716 -0.1367  0.4247 173 176 177
-0.0723 -0.1367  0.4247 173 176 177
-0.0730 -0.1367  0.4247 174 174 176
-0.0736 -0.1367  0.4246 174 174 176
-0.0743 -0.1367  0.4245 175 175 177
-0.0750 -0.1367  0.4245 176 176 178
-0.0757 -0.1367  0.4245 176 176 178
-0.0763 -0.1366  0.4243 176 176 178
-0.0770 -0.1366  0.4243 176 176 178
-0.0777 -0.1367  0.4245 176 176 178
-0.0784 -0.1367  0.4245 176 176 178
-0.0791 -0.1367  0.4245 178 178 180
-0.0798 -0.1367  0.4245 178 178 180
-0.0805 -0.1367  0.4246 178 178 180
-0.0812 -0.1367  0.4247 176 179 180
-0.0819 -0.1367  0.4247 176 179 180
-0.0825 -0.1367  0.4246 177 180 181
-0.0832 -0.1367  0.4245 177 180 181
-0.0839 -0.1367  0.4245 178 181 182
-0.0845 -0.1366  0.4242 178 181 182
-0.0852 -0.1365  0.4240 179 182 183
-0.0858 -0.1365  0.4238 179 182 183
-0.0865 -0.1365  0.4238 179 182 183
-0.0871 -0.1364  0.4236 179 182 183
-0.0878 -0.1363  0.4235 180 183 184
-0.0884 -0.1363  0.4233 180 183 184
-0.0891 -0.1363  0.4233 180 183 184
-0.0898 -0.1363  0.4232 180 183 184
-0.0905 -0.1363  0.4232 181 184 185
-0.0911 -0.1362  0.4231 183 186 187
-0.0918 -0.1362  0.4231 183 186 187
-0.0925 -0.1362  0.4231 184 187 188
-0.0931 -0.1362  0.4230 183 186 187
-0.0938 -0.1362  0.4230 183 186 187
-0.0945 -0.1362  0.4230 183 186 187
-0.0952 -0.1361  0.4228 183 186 187
-0.0958 -0.1361  0.4227 183 186 187
-0.0965 -0.1361  0.4226 183 186 187
-0.0972 -0.1361  0.4226 184 187 188
-0.0978 -0.1360  0.4225 185 188 189
-0.0984 -0.1359  0.4222 185 188 189
-0.0991 -0.1359  0.4222 185 188 189
-0.0998 -0.1359  0.4222 186 189 190
-0.1004 -0.1359  0.4221 186 189 190
-0.1011 -0.1359  0.4220 185 188 189
-0.1018 -0.1359  0.4220 185 188 189
-0.1025 -0.1359  0.4220 185 188 189
-0.1031 -0.1358  0.4218 185 188 189
-0.1038 -0.1358  0.4217 185 188 189
-0.1044 -0.1358  0.4217 186 189 190
-0.1051 -0.1358  0.4217 186 189 190
-0.1058 -0.1358  0.4217 186 189 190
-0.1065 -0.1358  0.4217 186 189 190
-0.1072 -0.1358  0.4217 185 188 189
-0.1079 -0.1358  0.4217 185 188 189
-0.1085 -0.1358  0.4217 185 188 189
-0.1092 -0.1358  0.4218 185 188 189
-0.1100 -0.1359  0.4220 185 188 189
-0.1106 -0.1359  0.4220 185 188 189
-0.1113 -0.1359  0.4220 184 187 188
-0.1120 -0.1359  0.4221 184 187 188
-0.1131 -0.1363  0.4235 185 188 189
-0.1138 -0.1363  0.4235 185 188 189
-0.1145 -0.1363  0.4235 184 187 188
-0.1151 -0.1363  0.4235 184 187 188
-0.1158 -0.1363  0.4235 184 187 188
-0.1165 -0.1363  0.4233 184 187 188
-0.1171 -0.1363  0.4232 184 187 188
-0.1177 -0.1362  0.4230 184 187 188
-0.1184 -0.1362  0.4230 184 187 188
-0.1190 -0.1361  0.4227 184 187 188
-0.1196 -0.1360  0.4225 184 187 188
-0.1203 -0.1360  0.4223 185 188 189
-0.1210 -0.1360  0.4223 185 188 189
-0.1216 -0.1359  0.4221 184 187 188
-0.1222 -0.1359  0.4220 184 187 188
-0.1229 -0.1358  0.4218 185 188 189
-0.1235 -0.1358  0.4218 184 187 188
-0.1242 -0.1358  0.4217 184 187 188
-0.1249 -0.1358  0.4217 185 188 189
-0.1255 -0.1357  0.4216 184 187 188
-0.1262 -0.1357  0.4216 183 186 187
-0.1269 -0.1357  0.4216 184 187 188
-0.1275 -0.1357  0.4215 183 186 187
-0.1282 -0.1357  0.4215 183 186 187
-0.1288 -0.1357  0.4213 183 186 187
-0.1295 -0.1356  0.4212 181 184 185
-0.1301 -0.1356  0.4211 180 183 184
-0.1308 -0.1356  0.4211 180 183 186
-0.1314 -0.1355  0.4210 180 183 186
-0.1321 -0.1355  0.4210 180 183 186
-0.1328 -0.1355  0.4208 180 183 186
-0.1334 -0.1355  0.4208 179 182 185
-0.1341 -0.1355  0.4208 179 182 185
-0.1348 -0.1355  0.4208 179 182 183
-0.1355 -0.1355  0.4210 179 182 183
-0.1362 -0.1355  0.4210 179 182 183
-0.1369 -0.1355  0.4210 178 181 182
-0.1376 -0.1356  0.4212 178 181 182
-0.1383 -0.1356  0.4212 178 181 182
-0.1390 -0.1356  0.4212 177 180 181
-0.1397 -0.1356  0.4212 177 180 181
-0.1404 -0.1356  0.4212 177 180 179
-0.1410 -0.1356  0.4212 177 180 179
-0.1417 -0.1356  0.4212 177 180 179
-0.1424 -0.1356  0.4212 177 180 179
-0.1431 -0.1356  0.4212 177 180 179
-0.1438 -0.1356  0.4212 177 180 179
-0.1445 -0.1356  0.4212 177 180 179
-0.1451 -0.1356  0.4211 176 179 178
-0.1457 -0.1355  0.4210 176 179 178
-0.1464 -0.1355  0.4210 176 179 178
-0.1471 -0.1355  0.4210 174 177 176
-0.1477 -0.1355  0.4208 174 177 176
-0.1484 -0.1355  0.4208 173 176 177
-0.1490 -0.1355  0.4207 174 177 178
-0.1497 -0.1355  0.4207 174 177 178
-0.1508 -0.1359  0.4220 174 177 178
-0.1516 -0.1359  0.4221 173 176 177
-0.1522 -0.1359  0.4221 173 176 177
-0.1529 -0.1359  0.4221 173 176 177
-0.1537 -0.1359  0.4222 173 176 177
-0.1543 -0.1359  0.4222 173 176 177
-0.1550 -0.1359  0.4222 173 176 177
-0.1557 -0.1359  0.4222 173 176 177
-0.1563 -0.1359  0.4221 172 175 176
-0.1570 -0.1359  0.4221 172 175 176
-0.1577 -0.1359  0.4220 172 175 176
-0.1583 -0.1358  0.4218 171 174 175
-0.1590 -0.1358  0.4218 171 174 175
-0.1596 -0.1358  0.4217 172 175 176
-0.1603 -0.1358  0.4217 172 175 176
-0.1610 -0.1358  0.4217 171 174 175
-0.1616 -0.1358  0.4217 172 175 176
-0.1623 -0.1358  0.4217 174 174 176
-0.1630 -0.1358  0.4217 173 173 175
-0.1637 -0.1358  0.4218 173 173 175
-0.1645 -0.1359  0.4220 172 172 174
-0.1651 -0.1359  0.4220 172 172 174
-0.1659 -0.1359  0.4221 173 173 175
-0.1666 -0.1359  0.4222 173 173 175
-0.1673 -0.1359  0.4222 172 172 174
-0.1680 -0.1360  0.4223 172 172 174
-0.1687 -0.1360  0.4223 173 173 175
-0.1694 -0.1360  0.4223 173 173 175
-0.1700 -0.1359  0.4222 173 173 175
-0.1706 -0.1359  0.4220 171 174 175
-0.1713 -0.1359  0.4220 171 174 175
-0.1719 -0.1358  0.4217 170 173 174
-0.1725 -0.1357  0.4216 170 173 174
-0.1731 -0.1357  0.4213 170 173 174
-0.1737 -0.1357  0.4213 170 173 174
-0.1743 -0.1356  0.4211 170 173 174
-0.1750 -0.1355  0.4210 170 173 174
-0.1756 -0.1355  0.4210 170 173 174
-0.1762 -0.1355  0.4207 170 173 174
-0.1769 -0.1355  0.4207 170 173 174
-0.1776 -0.1355  0.4207 170 173 174
-0.1788 -0.1359  0.4221 170 173 174
-0.1795 -0.1359  0.4220 170 173 174
-0.1801 -0.1358  0.4218 170 173 174
-0.1808 -0.1358  0.4218 170 173 174
-0.1814 -0.1358  0.4217 170 173 174
-0.1820 -0.1357  0.4216 170 173 174
-0.1826 -0.1357  0.4215 170 173 174
-0.1833 -0.1357  0.4215 170 173 174
-0.1840 -0.1357  0.4213 170 173 174
-0.1846 -0.1356  0.4212 170 173 174
-0.1853 -0.1356  0.4212 170 173 174
-0.1859 -0.1356  0.4212 170 173 174
-0.1866 -0.1356  0.4212 170 173 174
-0.1872 -0.1356  0.4211 170 173 174
-0.1879 -0.1356  0.4211 170 173 174
-0.1886 -0.1356  0.4211 170 173 174
-0.1893 -0.1356  0.4212 170 173 174
-0.1900 -0.1356  0.4212 169 172 173
-0.1907 -0.1356  0.4212 167 173 173
-0.1914 -0.1356  0.4212 168 174 174
-0.1921 -0.1357  0.4213 167 173 173
-0.1928 -0.1357  0.4213 168 174 174
-0.1935 -0.1357  0.4215 170 173 174
-0.1942 -0.1357  0.4215 169 172 173
-0.1949 -0.1357  0.4215 169 172 173
-0.1955 -0.1357  0.4213 170 173 174
-0.1961 -0.1356  0.4212 169 172 173
-0.1968 -0.1356  0.4212 169 172 173
-0.1975 -0.1356  0.4212 170 173 174
-0.1982 -0.1356  0.4212 170 173 174
-0.1989 -0.1356  0.4212 169 172 173
-0.1995 -0.1356  0.4212 169 172 173
-0.2002 -0.1356  0.4211 170 173 174
-0.2008 -0.1356  0.4211 170 173 174
-0.2015 -0.1356  0.4211 170 173 174
-0.2022 -0.1356  0.4211 169 172 173
-0.2034 -0.1359  0.4222 170 173 174
-0.2040 -0.1359  0.4221 169 172 173
-0.2047 -0.1359  0.4221 169 172 173
-0.2054 -0.1359  0.4221 170 173 174
-0.2062 -0.1359  0.4222 169 172 173
-0.2068 -0.1359  0.4222 169 172 173
-0.2075 -0.1359  0.4222 170 173 174
-0.2083 -0.1360  0.4225 170 173 174
-0.2091 -0.1361  0.4227 169 172 173
-0.2098 -0.1361  0.4227 169 172 173
-0.2105 -0.1361  0.4227 170 173 174
-0.2112 -0.1361  0.4227 170 173 174
-0.2117 -0.1360  0.4223 170 173 176
-0.2122 -0.1359  0.4221 170 173 176
-0.2128 -0.1358  0.4218 169 172 175
-0.2135 -0.1358  0.4218 170 173 176
-0.2141 -0.1358  0.4217 170 173 174
-0.2147 -0.1357  0.4216 169 172 173
-0.2154 -0.1357  0.4216 170 173 174
-0.2160 -0.1357  0.4215 170 173 174
-0.2167 -0.1357  0.4215 171 171 173
-0.2174 -0.1357  0.4215 171 171 173
-0.2180 -0.1357  0.4213 172 172 176
-0.2186 -0.1356  0.4212 172 172 176
-0.2193 -0.1356  0.4212 172 172 176
-0.2199 -0.1356  0.4212 172 172 176
-0.2206 -0.1356  0.4212 172 172 176
 0.2107 -0.1390  0.4297 155 162 168
 0.2097 -0.1388  0.4291 156 163 169
 0.2090 -0.1388  0.4291 160 167 173
 0.2082 -0.1388  0.4290 160 167 173
 0.2075 -0.1388  0.4290 161 166 171
 0.2064 -0.1385  0.4281 161 166 171
 0.2057 -0.1385  0.4281 161 166 171
 0.2053 -0.1387  0.4287 161 166 171
 0.2049 -0.1389  0.4292 162 164 170
 0.2042 -0.1389  0.4292 163 165 171
 0.2037 -0.1390  0.4296 163 165 171
 0.2030 -0.1390  0.4296 163 165 171
 0.2023 -0.1390  0.4296 162 164 170
 0.2019 -0.1392  0.4303 160 162 168
 0.2013 -0.1393  0.4305 158 163 168
 0.2006 -0.1393  0.4305 157 162 167
 0.2000 -0.1393  0.4306 159 161 167
 0.1993 -0.1393  0.4306 160 162 168
 0.1986 -0.1393  0.4306 160 162 168
 0.1979 -0.1393  0.4306 160 162 168
 0.1972 -0.1394  0.4307 159 161 167
 0.1966 -0.1394  0.4307 159 161 167
 0.1961 -0.1395  0.4312 158 160 166
 0.1956 -0.1397  0.4317 158 160 166
 0.1949 -0.1397  0.4317 158 160 166
 0.1943 -0.1398  0.4320 158 160 166
 0.1938 -0.1399  0.4323 158 160 166
 0.1932 -0.1400  0.4326 158 160 166
 0.1925 -0.1400  0.4326 158 160 166
 0.1919 -0.1401  0.4328 158 160 166
 0.1913 -0.1401  0.4331 158 160 166
 0.1906 -0.1401  0.4331 158 160 166
 0.1899 -0.1401  0.4331 157 160 163
 0.1892 -0.1401  0.4331 157 160 163
 0.1885 -0.1401  0.4330 156 159 162
 0.1872 -0.1397  0.4316 157 160 163
 0.1865 -0.1397  0.4316 157 160 163
 0.1857 -0.1396  0.4313 157 160 163
 0.1849 -0.1395  0.4311 157 160 163
 0.1842 -0.1395  0.4311 156 159 162
 0.1834 -0.1394  0.4308 156 159 162
 0.1825 -0.1392  0.4303 156 159 162
 0.1818 -0.1392  0.4303 156 159 162
 0.1809 -0.1391  0.4300 156 159 162
 0.1801 -0.1390  0.4297 156 159 162
 0.1794 -0.1390  0.4297 155 158 161
 0.1787 -0.1390  0.4296 155 157 163
 0.1780 -0.1390  0.4296 156 158 164
 0.1773 -0.1390  0.4296 155 157 163
 0.1766 -0.1390  0.4296 155 157 163
 0.1759 -0.1390  0.4296 155 157 163
 0.1753 -0.1390  0.4297 155 157 163
 0.1746 -0.1390  0.4297 155 157 163
 0.1739 -0.1390  0.4297 153 155 161
 0.1732 -0.1391  0.4298 153 155 161
 0.1726 -0.1391  0.4298 153 155 161
 0.1719 -0.1391  0.4298 153 155 161
 0.1712 -0.1391  0.4300 153 155 161
 0.1706 -0.1392  0.4301 153 156 159
 0.1699 -0.1392  0.4301 153 156 159
 0.1692 -0.1392  0.4302 153 156 159
 0.1686 -0.1393  0.4305 153 156 159
 0.1681 -0.1394  0.4308 155 155 159
 0.1668 -0.1389  0.4292 155 155 159
 0.1661 -0.1389  0.4292 155 155 157
 0.1654 -0.1389  0.4293 154 154 156
 0.1647 -0.1389  0.4293 154 154 156
 0.1640 -0.1389  0.4292 154 154 156
 0.1633 -0.1389  0.4292 154 154 156
 0.1626 -0.1388  0.4291 154 154 156
 0.1618 -0.1388  0.4290 154 154 156
 0.1611 -0.1388  0.4290 154 154 156
 0.1604 -0.1388  0.4288 151 154 155
 0.1597 -0.1388  0.4288 151 154 155
 0.1590 -0.1388  0.4288 152 155 156
 0.1583 -0.1388  0.4288 152 155 156
 0.1576 -0.1388  0.4288 152 155 156
 0.1569 -0.1388  0.4288 153 156 157
 0.1562 -0.1388  0.4288 152 155 156
 0.1555 -0.1388  0.4288 152 155 156
 0.1548 -0.1387  0.4287 152 155 156
 0.1541 -0.1387  0.4287 151 154 155
 0.1534 -0.1387  0.4287 151 154 155
 0.1528 -0.1388  0.4288 151 154 155
 0.1521 -0.1388  0.4290 151 154 155
 0.1515 -0.1389  0.4292 150 153 154
 0.1508 -0.1389  0.4292 151 154 155
 0.1502 -0.1389  0.4293 151 154 155
 0.1495 -0.1390  0.4295 150 153 154
 0.1488 -0.1390  0.4295 151 154 155
 0.1482 -0.1390  0.4297 151 154 155
 0.1476 -0.1391  0.4298 150 153 154
 0.1469 -0.1391  0.4300 151 154 155
 0.1462 -0.1391  0.4300 152 155 156
 0.1451 -0.1387  0.4287 152 155 156
 0.1444 -0.1387  0.4287 151 154 155
 0.1437 -0.1387  0.4287 152 155 156
 0.1430 -0.1387  0.4287 152 155 156
 0.1423 -0.1387  0.4286 152 155 156
 0.1416 -0.1387  0.4286 152 155 156
 0.1409 -0.1386  0.4285 152 155 154
 0.1401 -0.1386  0.4283 151 154 153
 0.1394 -0.1386  0.4283 152 155 154
 0.1388 -0.1386  0.4283 152 155 154
 0.1381 -0.1386  0.4283 152 155 154
 0.1374 -0.1386  0.4285 152 155 154
 0.1368 -0.1387  0.4287 152 155 154
 0.1361 -0.1387  0.4287 153 156 155
 0.1355 -0.1388  0.4288 152 155 154
 0.1348 -0.1388  0.4290 152 155 154
 0.1341 -0.1388  0.4290 152 155 154
 0.1334 -0.1388  0.4290 152 155 154
 0.1326 -0.1387  0.4287 152 155 154
 0.1320 -0.1387  0.4287 152 155 154
 0.1312 -0.1386  0.4285 151 154 155
 0.1304 -0.1385  0.4281 152 155 156
 0.1297 -0.1385  0.4281 152 155 156
 0.1289 -0.1384  0.4278 152 155 156
 0.1282 -0.1384  0.4277 152 155 156
 0.1275 -0.1384  0.4277 152 155 156
 0.1268 -0.1384  0.4277 152 155 154
 0.1261 -0.1384  0.4277 152 155 154
 0.1255 -0.1384  0.4278 152 155 154
 0.1248 -0.1385  0.4280 152 155 154
 0.1241 -0.1385  0.4280 152 155 154
 0.1234 -0.1385  0.4280 152 155 154
 0.1227 -0.1385  0.4280 152 155 154
 0.1220 -0.1385  0.4280 152 155 154
 0.1214 -0.1385  0.4280 152 155 154
 0.1203 -0.1381  0.4267 152 155 154
 0.1196 -0.1381  0.4267 152 155 154
 0.1190 -0.1381  0.4268 152 155 154
 0.1183 -0.1381  0.4268 151 154 153
 0.1176 -0.1382  0.4270 152 155 154
 0.1170 -0.1383  0.4273 152 155 154
 0.1163 -0.1383  0.4273 152 155 154
 0.1157 -0.1384  0.4276 152 155 156
 0.1151 -0.1385  0.4280 153 156 157
 0.1145 -0.1386  0.4282 152 155 156
 0.1138 -0.1386  0.4282 151 154 155
 0.1132 -0.1386  0.4285 152 155 156
 0.1125 -0.1387  0.4286 152 155 156
 0.1119 -0.1387  0.4287 152 155 156
 0.1112 -0.1387  0.4287 151 154 155
 0.1106 -0.1388  0.4290 152 155 156
 0.1099 -0.1388  0.4291 151 154 155
 0.1092 -0.1389  0.4292 152 155 156
 0.1085 -0.1389  0.4292 152 155 156
 0.1079 -0.1389  0.4293 152 155 156
 0.1072 -0.1389  0.4293 152 155 156
 0.1065 -0.1390  0.4295 152 155 156
 0.1058 -0.1390  0.4295 152 155 156
 0.1051 -0.1390  0.4295 152 155 156
 0.1044 -0.1390  0.4295 151 154 155
 0.1037 -0.1389  0.4293 152 155 156
 0.1030 -0.1389  0.4293 153 156 157
 0.1024 -0.1390  0.4295 151 154 155
 0.1017 -0.1390  0.4295 152 155 156
 0.1010 -0.1390  0.4295 152 155 156
 0.1003 -0.1390  0.4296 152 155 156
 0.0997 -0.1391  0.4298 152 155 156
 0.0990 -0.1392  0.4301 152 155 156
 0.0983 -0.1392  0.4301 152 155 156
 0.0977 -0.1392  0.4302 152 155 156
 0.0970 -0.1392  0.4302 152 155 156
 0.0963 -0.1392  0.4302 152 155 156
 0.0955 -0.1391  0.4300 152 155 156
 0.0947 -0.1390  0.4295 152 155 156
 0.0940 -0.1389  0.4292 152 155 156
 0.0933 -0.1389  0.4292 152 155 156
 0.0925 -0.1388  0.4290 152 155 156
 0.0919 -0.1388  0.4290 152 155 156
 0.0912 -0.1388  0.4290 154 154 156
 0.0902 -0.1384  0.4277 153 153 155
 0.0895 -0.1384  0.4277 154 154 156
 0.0888 -0.1384  0.4277 154 154 156
 0.0881 -0.1384  0.4277 154 154 154
 0.0874 -0.1384  0.4277 155 155 155
 0.0867 -0.1384  0.4276 155 155 155
 0.0860 -0.1384  0.4276 154 154 154
 0.0853 -0.1384  0.4276 155 155 155
 0.0847 -0.1384  0.4276 154 154 154
 0.0840 -0.1384  0.4277 154 154 156
 0.0833 -0.1384  0.4277 154 154 156
 0.0826 -0.1384  0.4278 155 154 156
 0.0819 -0.1384  0.4278 155 154 156
 0.0813 -0.1385  0.4280 156 155 157
 0.0806 -0.1385  0.4280 155 154 156
 0.0799 -0.1385  0.4280 155 154 156
 0.0792 -0.1385  0.4280 156 155 157
 0.0785 -0.1384  0.4278 156 155 157
 0.0778 -0.1384  0.4277 156 155 157
 0.0771 -0.1384  0.4277 155 154 156
 0.0764 -0.1384  0.4276 155 154 156
 0.0757 -0.1383  0.4275 155 154 156
 0.0750 -0.1383  0.4275 155 154 156
 0.0743 -0.1383  0.4275 155 154 156
 0.0736 -0.1383  0.4273 155 154 156
 0.0729 -0.1383  0.4273 155 154 156
 0.0722 -0.1383  0.4275 155 154 156
 0.0715 -0.1383  0.4275 155 154 156
 0.0708 -0.1383  0.4275 155 154 156
 0.0702 -0.1384  0.4276 155 154 156
 0.0695 -0.1384  0.4277 155 154 156
 0.0688 -0.1385  0.4280 156 155 157
 0.0681 -0.1385  0.4280 156 155 157
 0.0675 -0.1385  0.4280 156 155 157
 0.0668 -0.1386  0.4282 156 155 157
 0.0661 -0.1386  0.4282 156 155 157
 0.0654 -0.1386  0.4282 156 155 157
 0.0647 -0.1386  0.4283 156 155 155
 0.0641 -0.1386  0.4283 155 154 154
 0.0634 -0.1386  0.4285 156 155 155
 0.0627 -0.1386  0.4285 156 155 155
 0.0620 -0.1387  0.4286 155 154 154
 0.0613 -0.1387  0.4287 155 154 154
 0.0607 -0.1388  0.4288 156 155 157
 0.0600 -0.1388  0.4288 155 154 156
 0.0593 -0.1388  0.4290 156 155 157
 0.0586 -0.1388  0.4290 156 155 157
 0.0579 -0.1388  0.4290 155 154 156
 0.0572 -0.1388  0.4290 155 154 156
 0.0565 -0.1388  0.4290 156 155 157
 0.0558 -0.1388  0.4290 156 155 157
 0.0551 -0.1388  0.4290 156 155 157
 0.0545 -0.1388  0.4290 156 155 157
 0.0538 -0.1388  0.4290 156 155 157
 0.0530 -0.1387  0.4287 156 155 157
 0.0523 -0.1387  0.4287 156 155 155
 0.0516 -0.1387  0.4286 156 155 155
 0.0509 -0.1386  0.4285 156 155 155
 0.0502 -0.1386  0.4283 156 155 155
 0.0495 -0.1386  0.4283 156 155 155
 0.0488 -0.1386  0.4282 156 155 155
 0.0480 -0.1381  0.4267 155 155 155
 0.0473 -0.1381  0.4267 155 155 155
 0.0466 -0.1381  0.4267 155 155 155
 0.0459 -0.1381  0.4268 155 155 155
 0.0452 -0.1382  0.4270 157 157 159
 0.0446 -0.1382  0.4272 157 157 159
 0.0439 -0.1383  0.4273 157 157 157
 0.0432 -0.1383  0.4273 157 157 157
 0.0425 -0.1384  0.4276 157 157 157
 0.0419 -0.1384  0.4277 157 157 157
 0.0412 -0.1384  0.4278 157 157 157
 0.0405 -0.1384  0.4278 157 157 157
 0.0398 -0.1385  0.4280 157 157 157
 0.0391 -0.1384  0.4278 157 157 157
 0.0384 -0.1384  0.4278 158 158 158
 0.0377 -0.1384  0.4277 157 157 157
 0.0370 -0.1384  0.4276 157 157 157
 0.0363 -0.1383  0.4275 157 157 157
 0.0356 -0.1383  0.4275 157 157 157
 0.0349 -0.1382  0.4272 157 157 157
 0.0342 -0.1382  0.4272 157 157 157
 0.0335 -0.1382  0.4272 157 157 157
 0.0328 -0.1382  0.4272 157 157 157
 0.0322 -0.1382  0.4272 157 157 157
 0.0315 -0.1382  0.4272 157 157 157
 0.0308 -0.1383  0.4275 157 157 157
 0.0301 -0.1384  0.4276 157 157 157
 0.0294 -0.1384  0.4276 157 157 157
 0.0287 -0.1384  0.4276 157 157 157
 0.0280 -0.1383  0.4275 158 158 158
 0.0273 -0.1383  0.4275 158 158 158
 0.0266 -0.1382  0.4272 159 159 159
 0.0259 -0.1382  0.4271 158 158 158
 0.0252 -0.1382  0.4270 158 158 158
 0.0246 -0.1382  0.4270 158 158 158
 0.0239 -0.1382  0.4270 158 158 158
 0.0232 -0.1381  0.4268 157 157 157
 0.0225 -0.1381  0.4267 158 158 158
 0.0218 -0.1381  0.4267 158 158 158
 0.0211 -0.1381  0.4267 158 158 158
 0.0204 -0.1381  0.4267 158 158 158
 0.0197 -0.1381  0.4267 158 158 158
 0.0190 -0.1381  0.4267 158 158 158
 0.0183 -0.1381  0.4267 158 158 158
 0.0176 -0.1381  0.4267 158 158 158
 0.0170 -0.1381  0.4268 158 158 158
 0.0163 -0.1382  0.4270 158 158 158
 0.0156 -0.1382  0.4270 158 158 158
 0.0149 -0.1382  0.4270 158 158 158
 0.0142 -0.1382  0.4270 158 158 158
 0.0135 -0.1382  0.4270 158 158 158
 0.0128 -0.1382  0.4270 158 158 158
 0.0121 -0.1382  0.4270 158 158 158
 0.0115 -0.1382  0.4270 158 158 158
 0.0108 -0.1382  0.4271 158 158 158
 0.0101 -0.1382  0.4271 159 159 159
 0.0094 -0.1382  0.4271 159 159 159
 0.0087 -0.1382  0.4271 159 159 159
 0.0080 -0.1382  0.4270 159 159 159
 0.0073 -0.1382  0.4270 159 159 159
 0.0066 -0.1382  0.4270 159 159 159
 0.0059 -0.1381  0.4268 159 159 159
 0.0052 -0.1381  0.4267 159 159 159
 0.0046 -0.1381  0.4267 159 159 159
 0.0039 -0.1381  0.4267 160 160 160
 0.0032 -0.1381  0.4267 159 159 159
 0.0025 -0.1381  0.4267 160 160 160
 0.0018 -0.1381  0.4267 159 159 159
 0.0011 -0.1381  0.4267 159 159 159
 0.0004 -0.1381  0.4267 159 159 159
-0.0003 -0.1381  0.4267 159 159 159
-0.0010 -0.1381  0.4267 160 160 160
-0.0016 -0.1381  0.4267 160 160 160
-0.0023 -0.1381  0.4267 160 160 160
-0.0030 -0.1380  0.4266 160 160 160
-0.0037 -0.1380  0.4265 159 159 159
-0.0044 -0.1380  0.4265 160 160 160
-0.0051 -0.1380  0.4263 159 159 159
-0.0058 -0.1379  0.4262 160 160 160
-0.0065 -0.1379  0.4262 160 160 160
-0.0071 -0.1379  0.4262 160 160 160
-0.0078 -0.1379  0.4262 160 160 160
-0.0085 -0.1380  0.4263 160 160 160
-0.0092 -0.1380  0.4263 161 161 161
-0.0099 -0.1380  0.4265 161 161 161
-0.0106 -0.1380  0.4265 160 160 160
-0.0113 -0.1380  0.4266 161 161 161
-0.0120 -0.1380  0.4266 161 161 161
-0.0127 -0.1380  0.4266 160 160 160
-0.0133 -0.1380  0.4265 161 161 161
-0.0140 -0.1380  0.4265 161 161 161
-0.0147 -0.1380  0.4263 161 161 161
-0.0154 -0.1379  0.4262 161 161 161
-0.0161 -0.1379  0.4262 162 162 162
-0.0168 -0.1379  0.4261 162 162 162
-0.0175 -0.1378  0.4260 161 161 161
-0.0181 -0.1378  0.4257 161 161 161
-0.0188 -0.1378  0.4257 162 162 162
-0.0195 -0.1378  0.4257 162 162 162
-0.0202 -0.1377  0.4256 162 162 162
-0.0209 -0.1377  0.4256 162 162 162
-0.0216 -0.1378  0.4257 161 161 161
-0.0223 -0.1378  0.4257 162 165 164
-0.0229 -0.1377  0.4256 160 163 162
-0.0236 -0.1377  0.4256 160 163 162
-0.0243 -0.1377  0.4256 162 165 164
-0.0250 -0.1377  0.4255 162 162 162
-0.0257 -0.1377  0.4255 164 164 164
-0.0264 -0.1377  0.4255 164 164 164
-0.0271 -0.1377  0.4255 164 164 164
-0.0277 -0.1376  0.4253 164 164 164
-0.0284 -0.1376  0.4253 164 164 164
-0.0291 -0.1376  0.4253 164 164 164
-0.0298 -0.1376  0.4253 164 164 164
-0.0305 -0.1376  0.4253 164 164 164
-0.0312 -0.1377  0.4255 165 165 165
-0.0319 -0.1376  0.4253 162 165 164
-0.0325 -0.1376  0.4253 162 165 164
-0.0332 -0.1376  0.4253 163 166 165
-0.0339 -0.1376  0.4252 163 166 165
-0.0346 -0.1376  0.4252 163 166 167
-0.0353 -0.1376  0.4252 163 166 167
-0.0360 -0.1376  0.4252 163 166 167
-0.0367 -0.1376  0.4252 164 167 168
-0.0373 -0.1376  0.4252 164 167 168
-0.0380 -0.1375  0.4251 164 167 168
-0.0387 -0.1375  0.4251 164 167 168
-0.0394 -0.1375  0.4250 164 167 168
-0.0401 -0.1375  0.4250 164 167 168
-0.0407 -0.1375  0.4250 164 167 168
-0.0414 -0.1375  0.4250 165 168 169
-0.0421 -0.1375  0.4250 165 168 169
-0.0428 -0.1375  0.4250 165 168 169
-0.0435 -0.1375  0.4248 165 168 169
-0.0442 -0.1375  0.4248 164 167 168
-0.0449 -0.1375  0.4248 164 167 168
-0.0455 -0.1375  0.4248 165 168 169
-0.0462 -0.1375  0.4248 165 168 169
-0.0469 -0.1375  0.4248 165 168 169
-0.0476 -0.1375  0.4248 166 169 170
-0.0483 -0.1375  0.4250 166 169 170
-0.0490 -0.1375  0.4250 165 168 169
-0.0497 -0.1375  0.4250 166 169 170
-0.0504 -0.1375  0.4250 166 169 170
-0.0510 -0.1375  0.4248 166 169 170
-0.0517 -0.1374  0.4247 166 169 170
-0.0524 -0.1374  0.4247 166 169 170
-0.0531 -0.1374  0.4247 166 169 170
-0.0537 -0.1374  0.4246 167 170 171
-0.0544 -0.1373  0.4245 166 169 170
-0.0551 -0.1373  0.4242 167 170 171
-0.0557 -0.1373  0.4242 166 169 170
-0.0564 -0.1373  0.4242 166 169 170
-0.0571 -0.1372  0.4241 167 170 171
-0.0578 -0.1372  0.4240 167 170 171
-0.0585 -0.1372  0.4240 167 170 171
-0.0591 -0.1372  0.4240 167 170 171
-0.0598 -0.1372  0.4240 167 170 171
-0.0605 -0.1372  0.4240 169 172 173
-0.0612 -0.1372  0.4240 169 172 173
-0.0619 -0.1372  0.4240 169 172 173
-0.0626 -0.1372  0.4240 170 173 174
-0.0632 -0.1371  0.4238 169 172 173
-0.0639 -0.1371  0.4238 170 173 174
-0.0646 -0.1371  0.4238 170 173 174
-0.0653 -0.1371  0.4237 169 172 173
-0.0659 -0.1371  0.4237 170 173 174
-0.0666 -0.1371  0.4237 170 173 174
-0.0673 -0.1371  0.4237 171 174 175
-0.0680 -0.1371  0.4237 171 174 175
-0.0687 -0.1371  0.4236 171 174 175
-0.0693 -0.1371  0.4236 171 174 175
-0.0700 -0.1370  0.4235 172 175 176
-0.0707 -0.1370  0.4235 172 175 176
-0.0714 -0.1370  0.4235 173 176 177
-0.0721 -0.1370  0.4235 172 175 176
-0.0727 -0.1370  0.4235 174 174 176
-0.0734 -0.1370  0.4235 175 175 177
-0.0741 -0.1370  0.4233 175 175 177
-0.0748 -0.1370  0.4233 176 176 178
-0.0754 -0.1369  0.4232 176 176 178
-0.0761 -0.1369  0.4232 176 176 178
-0.0768 -0.1369  0.4231 176 176 178
-0.0775 -0.1369  0.4231 178 178 180
-0.0781 -0.1369  0.4231 178 178 180
-0.0788 -0.1369  0.4231 178 178 180
-0.0795 -0.1369  0.4232 176 179 180
-0.0802 -0.1369  0.4232 176 179 180
-0.0809 -0.1369  0.4232 176 179 180
-0.0816 -0.1369  0.4232 176 179 180
-0.0822 -0.1369  0.4231 177 180 181
-0.0829 -0.1369  0.4231 177 180 181
-0.0836 -0.1369  0.4230 178 181 182
-0.0842 -0.1368  0.4227 178 181 182
-0.0848 -0.1367  0.4225 179 182 183
-0.0855 -0.1367  0.4225 179 182 183
-0.0862 -0.1367  0.4223 180 183 184
-0.0868 -0.1366  0.4222 180 183 184
-0.0875 -0.1366  0.4221 180 183 184
-0.0882 -0.1366  0.4221 180 183 184
-0.0888 -0.1365  0.4220 181 184 185
-0.0895 -0.1365  0.4220 181 184 185
-0.0902 -0.1365  0.4220 181 184 185
-0.0909 -0.1365  0.4220 181 184 185
-0.0915 -0.1365  0.4218 183 186 187
-0.0922 -0.1365  0.4218 184 187 188
-0.0929 -0.1365  0.4217 183 186 187
-0.0936 -0.1365  0.4217 184 187 188
-0.0942 -0.1364  0.4216 183 186 187
-0.0949 -0.1364  0.4215 184 187 188
-0.0955 -0.1363  0.4213 183 186 187
-0.0962 -0.1363  0.4213 184 187 188
-0.0968 -0.1363  0.4212 184 187 188
-0.0975 -0.1363  0.4211 185 188 189
-0.0982 -0.1363  0.4211 184 187 188
-0.0991 -0.1366  0.4222 185 188 189
-0.0998 -0.1366  0.4222 185 188 189
-0.1004 -0.1366  0.4221 185 188 189
-0.1011 -0.1365  0.4220 185 188 189
-0.1018 -0.1365  0.4220 184 187 188
-0.1025 -0.1365  0.4220 184 187 188
-0.1031 -0.1365  0.4218 184 187 188
-0.1038 -0.1365  0.4217 185 188 189
-0.1044 -0.1365  0.4217 185 188 189
-0.1051 -0.1365  0.4217 185 188 189
-0.1058 -0.1365  0.4217 186 189 190
-0.1065 -0.1365  0.4217 185 188 189
-0.1072 -0.1365  0.4217 185 188 189
-0.1079 -0.1365  0.4217 185 188 189
-0.1085 -0.1365  0.4217 185 188 189
-0.1092 -0.1365  0.4218 185 188 189
-0.1100 -0.1365  0.4220 185 188 189
-0.1106 -0.1365  0.4220 185 188 189
-0.1113 -0.1365  0.4220 184 187 188
-0.1120 -0.1366  0.4221 184 187 188
-0.1128 -0.1366  0.4222 185 188 189
-0.1134 -0.1366  0.4222 184 187 188
-0.1141 -0.1366  0.4222 184 187 188
-0.1148 -0.1366  0.4222 184 187 188
-0.1155 -0.1366  0.4222 184 187 188
-0.1162 -0.1366  0.4222 184 187 188
-0.1168 -0.1366  0.4221 184 187 188
-0.1174 -0.1365  0.4218 184 187 188
-0.1181 -0.1365  0.4218 184 187 188
-0.1187 -0.1364  0.4216 184 187 188
-0.1194 -0.1364  0.4215 184 187 188
-0.1200 -0.1363  0.4212 184 187 188
-0.1206 -0.1363  0.4212 185 188 189
-0.1213 -0.1362  0.4210 184 187 188
-0.1219 -0.1362  0.4208 184 187 188
-0.1226 -0.1362  0.4208 184 187 188
-0.1232 -0.1361  0.4207 185 188 189
-0.1239 -0.1361  0.4206 184 187 188
-0.1245 -0.1361  0.4205 185 188 189
-0.1252 -0.1361  0.4205 184 187 188
-0.1259 -0.1361  0.4205 183 186 187
-0.1265 -0.1360  0.4203 184 187 188
-0.1271 -0.1360  0.4202 183 186 187
-0.1278 -0.1360  0.4202 183 186 187
-0.1285 -0.1359  0.4201 183 186 187
-0.1291 -0.1359  0.4200 183 186 189
-0.1297 -0.1359  0.4198 181 184 187
-0.1304 -0.1359  0.4198 181 184 187
-0.1310 -0.1358  0.4196 180 183 186
-0.1317 -0.1358  0.4196 180 183 186
-0.1324 -0.1358  0.4196 180 183 186
-0.1330 -0.1357  0.4195 179 182 185
-0.1337 -0.1357  0.4195 179 182 185
-0.1344 -0.1357  0.4195 179 182 183
-0.1350 -0.1357  0.4195 180 183 184
-0.1357 -0.1357  0.4195 179 182 183
-0.1364 -0.1358  0.4196 178 181 182
-0.1372 -0.1358  0.4197 179 182 183
-0.1378 -0.1358  0.4197 178 181 182
-0.1385 -0.1358  0.4196 177 180 181
-0.1392 -0.1358  0.4196 178 181 182
-0.1398 -0.1358  0.4196 178 181 180
-0.1410 -0.1363  0.4212 177 180 179
-0.1417 -0.1363  0.4212 177 180 179
-0.1424 -0.1363  0.4212 177 180 179
-0.1431 -0.1363  0.4212 177 180 179
-0.1438 -0.1363  0.4212 177 180 179
-0.1445 -0.1363  0.4212 177 180 179
-0.1451 -0.1363  0.4211 177 180 179
-0.1457 -0.1362  0.4210 176 179 178
-0.1464 -0.1362  0.4210 176 179 178
-0.1471 -0.1362  0.4210 174 177 176
-0.1477 -0.1362  0.4208 174 177 176
-0.1484 -0.1362  0.4208 174 177 176
-0.1490 -0.1361  0.4207 174 177 176
-0.1497 -0.1361  0.4207 174 177 176
-0.1504 -0.1362  0.4208 174 177 176
-0.1511 -0.1362  0.4208 174 177 176
-0.1518 -0.1362  0.4208 173 176 175
-0.1525 -0.1362  0.4208 173 176 175
-0.1532 -0.1362  0.4208 173 176 175
-0.1538 -0.1362  0.4208 173 176 175
-0.1545 -0.1362  0.4208 173 176 175
-0.1551 -0.1361  0.4207 173 176 175
-0.1558 -0.1361  0.4207 172 175 174
-0.1565 -0.1361  0.4207 172 175 176
-0.1571 -0.1361  0.4206 172 175 176
-0.1578 -0.1361  0.4205 171 174 175
-0.1585 -0.1361  0.4205 172 175 176
-0.1591 -0.1360  0.4203 172 175 176
-0.1598 -0.1360  0.4203 172 175 176
-0.1604 -0.1360  0.4203 171 174 175
-0.1611 -0.1360  0.4203 172 175 176
-0.1618 -0.1360  0.4203 173 173 175
-0.1625 -0.1360  0.4203 173 173 175
-0.1632 -0.1361  0.4205 173 173 175
-0.1639 -0.1361  0.4205 172 172 174
-0.1646 -0.1361  0.4206 172 172 174
-0.1653 -0.1361  0.4207 173 173 175
-0.1661 -0.1362  0.4208 172 172 174
-0.1667 -0.1362  0.4208 172 172 174
-0.1674 -0.1362  0.4208 172 172 174
-0.1681 -0.1362  0.4208 173 173 175
-0.1687 -0.1361  0.4207 173 173 175
-0.1693 -0.1361  0.4205 173 173 175
-0.1700 -0.1361  0.4205 172 172 174
-0.1713 -0.1365  0.4220 173 173 175
-0.1719 -0.1365  0.4217 170 173 174
-0.1725 -0.1364  0.4216 170 173 174
-0.1731 -0.1363  0.4213 170 173 174
-0.1737 -0.1363  0.4213 170 173 174
-0.1743 -0.1363  0.4211 170 173 174
-0.1750 -0.1362  0.4210 170 173 174
-0.1756 -0.1362  0.4210 171 174 175
-0.1762 -0.1361  0.4207 170 173 174
-0.1769 -0.1361  0.4207 170 173 174
-0.1775 -0.1361  0.4205 170 173 174
-0.1781 -0.1361  0.4205 170 173 174
-0.1788 -0.1361  0.4205 170 173 174
-0.1794 -0.1360  0.4202 170 173 174
-0.1801 -0.1360  0.4202 170 173 174
-0.1807 -0.1360  0.4202 171 174 175
-0.1814 -0.1359  0.4201 170 173 174
-0.1821 -0.1359  0.4201 170 173 174
-0.1827 -0.1359  0.4200 170 173 174
-0.1834 -0.1359  0.4200 169 172 173
-0.1840 -0.1359  0.4200 170 173 174
-0.1847 -0.1359  0.4200 170 173 174
-0.1853 -0.1359  0.4198 170 173 174
-0.1860 -0.1359  0.4198 170 173 174
-0.1867 -0.1359  0.4200 170 173 174
-0.1874 -0.1359  0.4198 169 172 173
-0.1880 -0.1359  0.4198 170 173 174
-0.1887 -0.1359  0.4198 170 173 174
-0.1894 -0.1359  0.4198 169 172 173
-0.1901 -0.1359  0.4198 169 172 173
-0.1908 -0.1359  0.4198 170 173 174
-0.1915 -0.1359  0.4200 170 173 174
-0.1922 -0.1359  0.4200 170 173 174
-0.1928 -0.1359  0.4200 170 173 174
-0.1935 -0.1359  0.4200 169 172 173
-0.1942 -0.1359  0.4200 170 173 174
-0.1949 -0.1359  0.4200 170 173 174
-0.1961 -0.1363  0.4212 170 173 174
-0.1968 -0.1363  0.4212 170 173 174
-0.1975 -0.1363  0.4212 170 173 174
-0.1982 -0.1363  0.4212 170 173 174
-0.1989 -0.1363  0.4212 169 172 173
-0.1995 -0.1363  0.4212 169 172 173
-0.2002 -0.1363  0.4211 170 173 174
-0.2008 -0.1363  0.4211 170 173 174
-0.2015 -0.1363  0.4211 170 173 174
-0.2021 -0.1362  0.4210 169 172 173
-0.2028 -0.1362  0.4208 170 173 174
-0.2034 -0.1362  0.4208 169 172 173
-0.2041 -0.1362  0.4208 169 172 173
-0.2048 -0.1362  0.4208 170 173 174
-0.2055 -0.1362  0.4208 169 172 173
-0.2062 -0.1362  0.4208 170 173 174
-0.2069 -0.1362  0.4210 170 173 174
-0.2076 -0.1363  0.4211 170 173 174
-0.2084 -0.1363  0.4212 169 172 173
-0.2090 -0.1363  0.4211 169 172 173
-0.2097 -0.1363  0.4211 170 173 174
-0.2104 -0.1363  0.4211 170 173 174
-0.2110 -0.1362  0.4210 170 173 176
-0.2116 -0.1362  0.4208 169 172 175
-0.2123 -0.1362  0.4208 169 172 173
-0.2129 -0.1361  0.4207 170 173 174
-0.2134 -0.1361  0.4205 170 173 174
-0.2141 -0.1361  0.4205 169 172 173
-0.2147 -0.1360  0.4203 170 173 174
-0.2154 -0.1360  0.4202 170 173 174
-0.2160 -0.1360  0.4202 171 171 173
-0.2167 -0.1360  0.4202 172 172 174
-0.2180 -0.1363  0.4213 172 172 176
-0.2186 -0.1363  0.4212 172 172 176
-0.2193 -0.1363  0.4212 172 172 176
-0.2199 -0.1363  0.4212 172 172 176
-0.2206 -0.1363  0.4212 172 172 176
 0.2127 -0.1402  0.4311 152 154 162
 0.2120 -0.1402  0.4311 156 158 166
 0.2107 -0.1397  0.4297 157 164 170
 0.2092 -0.1393  0.4282 157 164 170
 0.2085 -0.1393  0.4282 161 168 174
 0.2077 -0.1392  0.4280 161 168 174
 0.2070 -0.1392  0.4280 161 166 171
 0.2064 -0.1392  0.4280 161 166 171
 0.2057 -0.1392  0.4280 161 166 171
 0.2050 -0.1392  0.4280 161 166 171
 0.2045 -0.1393  0.4285 162 164 172
 0.2038 -0.1393  0.4285 162 164 172
 0.2034 -0.1395  0.4290 164 163 170
 0.2030 -0.1397  0.4296 164 163 170
 0.2023 -0.1397  0.4296 162 164 170
 0.2019 -0.1399  0.4303 160 162 168
 0.2013 -0.1400  0.4305 160 162 168
 0.2006 -0.1400  0.4305 159 161 167
 0.2000 -0.1400  0.4306 159 161 167
 0.1993 -0.1400  0.4306 160 162 168
 0.1980 -0.1396  0.4293 160 162 168
 0.1973 -0.1396  0.4293 160 162 168
 0.1967 -0.1397  0.4295 159 161 167
 0.1960 -0.1397  0.4295 159 161 167
 0.1954 -0.1397  0.4297 158 160 166
 0.1949 -0.1399  0.4301 158 160 166
 0.1942 -0.1399  0.4301 158 160 166
 0.1936 -0.1399  0.4303 158 160 166
 0.1931 -0.1401  0.4307 158 160 166
 0.1925 -0.1401  0.4310 158 160 166
 0.1918 -0.1401  0.4310 159 161 167
 0.1912 -0.1402  0.4312 158 160 166
 0.1907 -0.1403  0.4316 157 159 165
 0.1900 -0.1403  0.4316 158 160 166
 0.1893 -0.1404  0.4317 157 159 165
 0.1886 -0.1404  0.4317 157 159 165
 0.1879 -0.1404  0.4317 156 159 162
 0.1872 -0.1403  0.4316 156 159 162
 0.1865 -0.1403  0.4316 157 160 163
 0.1857 -0.1403  0.4313 157 160 163
 0.1849 -0.1402  0.4311 156 159 162
 0.1842 -0.1402  0.4311 157 160 163
 0.1834 -0.1401  0.4308 156 159 162
 0.1825 -0.1399  0.4303 156 159 162
 0.1818 -0.1399  0.4303 155 158 161
 0.1804 -0.1394  0.4287 155 158 161
 0.1797 -0.1394  0.4286 156 159 162
 0.1790 -0.1394  0.4286 155 158 161
 0.1782 -0.1393  0.4285 155 157 163
 0.1775 -0.1393  0.4285 155 157 163
 0.1768 -0.1393  0.4285 155 158 161
 0.1762 -0.1393  0.4285 155 158 161
 0.1755 -0.1393  0.4285 155 158 161
 0.1748 -0.1394  0.4286 155 158 161
 0.1741 -0.1394  0.4286 155 158 161
 0.1734 -0.1393  0.4285 153 156 159
 0.1726 -0.1393  0.4283 153 156 159
 0.1720 -0.1393  0.4283 152 155 158
 0.1712 -0.1393  0.4282 152 155 158
 0.1705 -0.1393  0.4282 153 156 159
 0.1698 -0.1393  0.4282 153 156 159
 0.1691 -0.1393  0.4282 153 156 159
 0.1685 -0.1393  0.4283 153 156 159
 0.1679 -0.1394  0.4286 153 156 159
 0.1672 -0.1394  0.4286 155 155 159
 0.1667 -0.1395  0.4290 155 155 159
 0.1661 -0.1396  0.4292 155 155 157
 0.1654 -0.1396  0.4293 154 154 156
 0.1647 -0.1396  0.4293 154 154 156
 0.1640 -0.1396  0.4292 154 154 156
 0.1633 -0.1396  0.4292 154 154 156
 0.1626 -0.1395  0.4291 154 154 156
 0.1618 -0.1395  0.4290 154 154 156
 0.1611 -0.1395  0.4290 154 154 156
 0.1599 -0.1390  0.4275 153 153 155
 0.1592 -0.1390  0.4275 153 153 155
 0.1585 -0.1390  0.4275 154 154 156
 0.1578 -0.1390  0.4276 154 154 156
 0.1572 -0.1390  0.4276 154 154 156
 0.1565 -0.1391  0.4277 154 154 156
 0.1559 -0.1391  0.4278 154 154 156
 0.1552 -0.1391  0.4278 154 154 156
 0.1545 -0.1391  0.4278 153 153 155
 0.1538 -0.1392  0.4280 153 153 155
 0.1531 -0.1392  0.4280 151 154 155
 0.1525 -0.1392  0.4280 150 153 154
 0.1518 -0.1392  0.4281 148 154 156
 0.1512 -0.1393  0.4283 147 153 155
 0.1505 -0.1393  0.4283 147 152 157
 0.1499 -0.1393  0.4285 147 152 157
 0.1492 -0.1393  0.4285 147 152 157
 0.1485 -0.1393  0.4285 148 153 158
 0.1478 -0.1394  0.4286 149 155 157
 0.1472 -0.1394  0.4287 148 154 156
 0.1465 -0.1394  0.4287 151 154 155
 0.1458 -0.1394  0.4287 152 155 156
 0.1451 -0.1394  0.4287 151 154 155
 0.1444 -0.1394  0.4287 151 154 155
 0.1437 -0.1394  0.4287 151 154 155
 0.1430 -0.1394  0.4287 152 155 156
 0.1423 -0.1394  0.4286 152 155 156
 0.1416 -0.1394  0.4286 152 155 156
 0.1409 -0.1393  0.4285 152 155 156
 0.1401 -0.1393  0.4283 151 154 155
 0.1394 -0.1393  0.4283 152 155 156
 0.1382 -0.1388  0.4267 152 155 156
 0.1375 -0.1388  0.4267 152 155 154
 0.1369 -0.1388  0.4270 152 155 154
 0.1363 -0.1389  0.4272 152 155 154
 0.1356 -0.1389  0.4272 152 155 154
 0.1350 -0.1390  0.4275 152 155 154
 0.1344 -0.1390  0.4276 152 155 154
 0.1337 -0.1390  0.4276 152 155 154
 0.1329 -0.1390  0.4275 152 155 154
 0.1322 -0.1390  0.4273 152 155 154
 0.1315 -0.1390  0.4273 152 155 154
 0.1308 -0.1389  0.4271 151 154 155
 0.1300 -0.1388  0.4268 152 155 156
 0.1293 -0.1388  0.4268 152 155 156
 0.1285 -0.1387  0.4266 152 155 156
 0.1278 -0.1387  0.4265 152 155 156
 0.1271 -0.1387  0.4265 152 155 156
 0.1264 -0.1387  0.4265 152 155 156
 0.1258 -0.1387  0.4265 152 155 156
 0.1251 -0.1387  0.4265 152 155 154
 0.1244 -0.1387  0.4266 152 155 154
 0.1237 -0.1387  0.4266 152 155 154
 0.1231 -0.1388  0.4267 152 155 154
 0.1224 -0.1388  0.4267 152 155 154
 0.1217 -0.1388  0.4267 152 155 154
 0.1210 -0.1388  0.4267 151 154 153
 0.1203 -0.1388  0.4267 152 155 154
 0.1196 -0.1388  0.4267 151 154 153
 0.1190 -0.1388  0.4268 152 155 154
 0.1183 -0.1388  0.4268 151 154 153
 0.1176 -0.1388  0.4270 152 155 154
 0.1170 -0.1390  0.4273 152 155 154
 0.1163 -0.1390  0.4273 152 155 154
 0.1157 -0.1390  0.4276 152 155 156
 0.1151 -0.1392  0.4280 153 156 157
 0.1145 -0.1393  0.4282 152 155 156
 0.1138 -0.1393  0.4282 151 154 155
 0.1128 -0.1389  0.4271 152 155 156
 0.1121 -0.1389  0.4271 152 155 156
 0.1115 -0.1389  0.4272 152 155 156
 0.1108 -0.1389  0.4272 152 155 156
 0.1101 -0.1390  0.4273 152 155 156
 0.1095 -0.1390  0.4275 152 155 156
 0.1088 -0.1390  0.4275 152 155 156
 0.1081 -0.1390  0.4275 152 155 156
 0.1074 -0.1390  0.4275 152 155 156
 0.1067 -0.1390  0.4275 152 155 156
 0.1060 -0.1390  0.4275 152 155 156
 0.1053 -0.1390  0.4275 153 156 157
 0.1046 -0.1390  0.4273 152 155 156
 0.1039 -0.1390  0.4273 151 154 155
 0.1032 -0.1390  0.4273 152 155 156
 0.1025 -0.1390  0.4273 152 155 156
 0.1019 -0.1390  0.4273 152 155 156
 0.1012 -0.1390  0.4275 152 155 156
 0.1005 -0.1390  0.4275 152 155 156
 0.0998 -0.1390  0.4276 152 155 156
 0.0992 -0.1392  0.4280 152 155 156
 0.0986 -0.1393  0.4282 152 155 156
 0.0979 -0.1393  0.4282 152 155 156
 0.0973 -0.1393  0.4285 152 155 156
 0.0965 -0.1393  0.4282 152 155 156
 0.0958 -0.1393  0.4282 152 155 156
 0.0951 -0.1392  0.4280 152 155 156
 0.0944 -0.1391  0.4277 151 154 155
 0.0937 -0.1391  0.4277 152 155 156
 0.0929 -0.1390  0.4275 152 155 156
 0.0922 -0.1390  0.4275 152 155 156
 0.0915 -0.1390  0.4275 152 155 156
 0.0909 -0.1390  0.4276 154 154 156
 0.0902 -0.1390  0.4276 153 153 155
 0.0895 -0.1391  0.4277 154 154 156
 0.0888 -0.1391  0.4277 154 154 156
 0.0881 -0.1391  0.4277 154 154 154
 0.0874 -0.1391  0.4277 155 155 155
 0.0867 -0.1390  0.4276 155 155 155
 0.0860 -0.1390  0.4276 154 154 154
 0.0853 -0.1390  0.4276 154 154 154
 0.0847 -0.1390  0.4276 154 154 154
 0.0840 -0.1391  0.4277 154 154 156
 0.0833 -0.1391  0.4277 154 154 156
 0.0826 -0.1391  0.4278 155 154 156
 0.0819 -0.1391  0.4278 155 154 156
 0.0813 -0.1392  0.4280 155 154 156
 0.0804 -0.1388  0.4267 155 154 156
 0.0797 -0.1388  0.4267 155 154 156
 0.0790 -0.1388  0.4267 155 154 156
 0.0783 -0.1387  0.4266 155 154 156
 0.0776 -0.1387  0.4266 155 154 156
 0.0769 -0.1387  0.4265 155 154 156
 0.0761 -0.1386  0.4262 155 154 156
 0.0754 -0.1386  0.4261 155 154 156
 0.0747 -0.1386  0.4261 155 154 156
 0.0740 -0.1385  0.4260 154 153 155
 0.0733 -0.1385  0.4260 155 154 156
 0.0726 -0.1385  0.4260 155 154 156
 0.0720 -0.1385  0.4260 155 154 156
 0.0713 -0.1385  0.4260 155 154 156
 0.0706 -0.1386  0.4261 155 154 156
 0.0699 -0.1386  0.4262 155 154 156
 0.0693 -0.1386  0.4263 155 154 156
 0.0686 -0.1386  0.4263 155 154 156
 0.0679 -0.1387  0.4265 155 154 156
 0.0672 -0.1387  0.4266 156 155 157
 0.0666 -0.1388  0.4267 156 155 157
 0.0659 -0.1388  0.4267 156 155 157
 0.0652 -0.1388  0.4267 156 155 157
 0.0645 -0.1388  0.4268 156 155 155
 0.0639 -0.1388  0.4270 156 155 155
 0.0632 -0.1388  0.4270 156 155 155
 0.0625 -0.1388  0.4270 156 155 155
 0.0618 -0.1389  0.4271 155 154 154
 0.0611 -0.1389  0.4272 155 154 154
 0.0604 -0.1389  0.4272 156 155 155
 0.0598 -0.1390  0.4273 155 154 154
 0.0591 -0.1390  0.4275 156 155 155
 0.0584 -0.1390  0.4275 156 155 155
 0.0577 -0.1390  0.4275 155 154 154
 0.0570 -0.1390  0.4275 155 154 154
 0.0563 -0.1390  0.4275 156 155 155
 0.0556 -0.1390  0.4275 156 155 155
 0.0550 -0.1390  0.4275 156 155 155
 0.0543 -0.1390  0.4275 156 155 155
 0.0536 -0.1390  0.4275 156 155 155
 0.0529 -0.1390  0.4275 156 155 155
 0.0522 -0.1390  0.4273 156 155 155
 0.0515 -0.1389  0.4272 156 155 155
 0.0508 -0.1388  0.4270 156 155 155
 0.0501 -0.1388  0.4270 156 155 155
 0.0494 -0.1388  0.4268 156 155 155
 0.0487 -0.1388  0.4267 156 155 155
 0.0480 -0.1388  0.4267 156 155 155
 0.0473 -0.1388  0.4267 156 155 155
 0.0466 -0.1388  0.4267 155 155 155
 0.0459 -0.1388  0.4268 155 155 155
 0.0452 -0.1388  0.4270 157 157 159
 0.0446 -0.1389  0.4272 157 157 159
 0.0439 -0.1390  0.4273 157 157 159
 0.0432 -0.1390  0.4273 157 157 159
 0.0425 -0.1390  0.4276 157 157 159
 0.0419 -0.1391  0.4277 157 157 159
 0.0412 -0.1391  0.4278 157 157 159
 0.0405 -0.1391  0.4278 157 157 159
 0.0398 -0.1392  0.4280 157 157 159
 0.0391 -0.1391  0.4278 157 157 159
 0.0384 -0.1391  0.4278 158 158 160
 0.0377 -0.1391  0.4277 157 157 159
 0.0370 -0.1390  0.4276 157 157 157
