ply
format ascii 1.0
element vertex 1328
property float x
property float y
property float z
property uchar red
property uchar green
property uchar blue
end_header
-0.0587 -0.1287  0.4762 169 172 173
-0.0595 -0.1287  0.4763 169 172 173
-0.0603 -0.1288  0.4764 170 173 174
-0.0611 -0.1288  0.4764 169 172 173
-0.0618 -0.1288  0.4764 169 172 173
-0.0626 -0.1288  0.4764 169 172 173
-0.0634 -0.1288  0.4764 170 173 174
-0.0642 -0.1288  0.4764 171 174 175
-0.0649 -0.1288  0.4764 171 174 175
-0.0657 -0.1288  0.4764 171 174 175
-0.0665 -0.1288  0.4766 171 174 175
-0.0672 -0.1288  0.4766 171 174 175
-0.0680 -0.1289  0.4767 170 176 176
-0.0688 -0.1289  0.4767 171 177 177
-0.0696 -0.1289  0.4768 170 176 178
-0.0704 -0.1289  0.4768 171 177 179
-0.0711 -0.1289  0.4769 171 177 179
-0.0719 -0.1289  0.4768 172 178 180
-0.0727 -0.1289  0.4768 176 179 182
-0.0734 -0.1289  0.4768 174 177 180
-0.0742 -0.1289  0.4767 176 179 180
-0.0750 -0.1289  0.4767 177 180 181
-0.0757 -0.1289  0.4767 177 180 181
-0.0765 -0.1289  0.4767 177 180 181
-0.0773 -0.1289  0.4767 178 181 182
-0.0783 -0.1293  0.4782 177 180 181
-0.0791 -0.1293  0.4782 178 181 182
-0.0799 -0.1293  0.4783 180 183 184
-0.0806 -0.1293  0.4783 180 183 184
-0.0814 -0.1293  0.4783 181 184 185
-0.0821 -0.1293  0.4782 183 186 187
-0.0829 -0.1293  0.4782 183 186 187
-0.0836 -0.1292  0.4779 184 187 188
-0.0844 -0.1292  0.4778 185 188 189
-0.0851 -0.1291  0.4776 185 188 189
-0.0859 -0.1291  0.4776 184 187 188
-0.0866 -0.1290  0.4773 184 187 188
-0.0874 -0.1290  0.4772 184 187 188
-0.0881 -0.1289  0.4769 183 186 187
-0.0889 -0.1289  0.4769 183 186 187
-0.0896 -0.1289  0.4769 183 186 187
-0.0904 -0.1289  0.4769 183 186 187
-0.0912 -0.1289  0.4769 183 186 187
-0.0919 -0.1289  0.4769 183 186 187
-0.0927 -0.1289  0.4769 183 186 187
-0.0935 -0.1289  0.4769 184 187 188
-0.0943 -0.1289  0.4769 183 186 187
-0.0950 -0.1289  0.4769 183 186 187
-0.0958 -0.1289  0.4769 183 186 187
-0.0966 -0.1289  0.4769 183 186 187
-0.0973 -0.1289  0.4769 183 186 187
-0.0981 -0.1289  0.4769 183 186 187
-0.0989 -0.1289  0.4769 181 184 185
-0.0996 -0.1289  0.4769 181 184 185
-0.1004 -0.1289  0.4769 183 186 187
-0.1012 -0.1289  0.4768 183 186 187
-0.1019 -0.1289  0.4768 183 186 187
-0.1027 -0.1289  0.4767 183 186 187
-0.1034 -0.1289  0.4767 183 186 187
-0.1042 -0.1288  0.4766 181 184 185
-0.1050 -0.1288  0.4766 183 186 185
-0.1057 -0.1288  0.4766 183 186 185
-0.1065 -0.1288  0.4766 185 185 185
-0.1073 -0.1288  0.4766 185 185 185
-0.1080 -0.1288  0.4766 185 185 185
-0.1088 -0.1288  0.4764 185 185 185
-0.1095 -0.1287  0.4763 186 186 186
-0.1103 -0.1287  0.4762 186 186 186
-0.1110 -0.1287  0.4762 185 185 185
-0.1117 -0.1286  0.4759 185 185 185
-0.1124 -0.1286  0.4757 185 185 185
-0.1132 -0.1286  0.4757 185 185 185
-0.1139 -0.1285  0.4754 183 186 185
-0.1146 -0.1284  0.4752 183 186 185
-0.1154 -0.1284  0.4752 181 184 183
-0.1162 -0.1284  0.4752 181 184 183
-0.1169 -0.1284  0.4752 180 183 182
-0.1177 -0.1284  0.4752 180 183 182
-0.1185 -0.1284  0.4752 182 182 182
-0.1193 -0.1285  0.4753 183 183 183
-0.1200 -0.1285  0.4753 182 182 182
-0.1208 -0.1285  0.4754 182 182 182
-0.1216 -0.1285  0.4756 180 183 182
-0.1224 -0.1286  0.4757 180 183 182
-0.1232 -0.1286  0.4757 180 183 182
-0.1240 -0.1286  0.4757 180 183 182
-0.1247 -0.1285  0.4754 180 183 182
-0.1254 -0.1285  0.4754 181 184 183
-0.1262 -0.1285  0.4754 179 182 181
-0.1269 -0.1285  0.4753 180 183 182
-0.1277 -0.1285  0.4753 179 182 181
-0.1285 -0.1285  0.4753 179 182 181
-0.1292 -0.1285  0.4753 179 182 181
-0.1300 -0.1285  0.4754 179 182 181
-0.1308 -0.1285  0.4754 178 181 180
-0.1316 -0.1285  0.4756 178 181 180
-0.1324 -0.1285  0.4756 177 180 179
-0.1331 -0.1285  0.4756 178 181 180
-0.1339 -0.1286  0.4757 177 180 179
-0.1348 -0.1286  0.4758 177 180 179
-0.1355 -0.1286  0.4758 176 179 178
-0.1363 -0.1286  0.4759 176 179 178
-0.1371 -0.1286  0.4758 176 179 178
-0.1378 -0.1286  0.4758 176 179 178
-0.1385 -0.1285  0.4756 176 179 178
-0.1392 -0.1285  0.4753 176 179 178
-0.1399 -0.1284  0.4749 174 177 176
-0.1406 -0.1284  0.4749 174 177 176
-0.1413 -0.1283  0.4747 173 176 177
-0.1420 -0.1282  0.4743 173 176 177
-0.1427 -0.1281  0.4741 173 176 177
-0.1434 -0.1281  0.4741 172 175 176
-0.1442 -0.1281  0.4739 175 175 177
-0.1449 -0.1281  0.4739 175 175 177
-0.1457 -0.1281  0.4739 174 174 176
-0.1465 -0.1281  0.4739 174 174 176
-0.1473 -0.1281  0.4741 171 174 175
-0.1485 -0.1285  0.4756 171 174 175
-0.1494 -0.1286  0.4758 171 174 175
-0.1502 -0.1287  0.4761 171 174 175
-0.1510 -0.1287  0.4761 171 174 175
-0.1518 -0.1287  0.4762 171 174 175
-0.1526 -0.1287  0.4763 171 174 175
-0.1534 -0.1287  0.4763 170 173 174
-0.1541 -0.1287  0.4763 172 172 174
-0.1549 -0.1287  0.4762 172 172 174
-0.1556 -0.1287  0.4762 172 172 172
-0.1564 -0.1287  0.4762 173 173 173
-0.1572 -0.1287  0.4762 172 172 172
-0.1579 -0.1287  0.4762 172 172 172
-0.1587 -0.1287  0.4762 172 172 172
-0.1594 -0.1287  0.4761 171 171 171
-0.1602 -0.1287  0.4761 171 171 171
-0.1609 -0.1286  0.4759 171 171 171
-0.1617 -0.1286  0.4759 171 171 171
-0.1625 -0.1286  0.4759 169 169 169
-0.1633 -0.1287  0.4761 169 172 171
-0.1641 -0.1287  0.4762 169 172 171
-0.1649 -0.1287  0.4763 169 172 171
-0.1657 -0.1287  0.4763 169 172 171
-0.1665 -0.1288  0.4764 167 170 169
-0.1673 -0.1288  0.4766 167 170 169
-0.1681 -0.1289  0.4767 172 173 169
-0.1689 -0.1289  0.4767 171 172 168
-0.1696 -0.1288  0.4764 171 172 168
-0.1703 -0.1288  0.4764 169 170 166
-0.1710 -0.1287  0.4762 169 169 169
-0.1717 -0.1286  0.4759 169 169 169
-0.1724 -0.1286  0.4757 169 169 169
-0.1731 -0.1286  0.4757 169 169 169
-0.1738 -0.1285  0.4756 169 169 169
-0.1746 -0.1285  0.4756 169 169 169
-0.1754 -0.1286  0.4757 168 168 168
-0.1762 -0.1286  0.4757 169 169 169
-0.1770 -0.1286  0.4758 169 169 169
-0.1778 -0.1286  0.4759 169 169 169
-0.1786 -0.1286  0.4759 168 169 165
-0.1793 -0.1286  0.4758 168 169 165
-0.1800 -0.1286  0.4757 168 169 165
-0.1807 -0.1285  0.4754 168 169 165
-0.1815 -0.1285  0.4754 169 169 165
-0.1822 -0.1284  0.4752 169 169 165
-0.1828 -0.1284  0.4749 169 169 165
-0.1836 -0.1284  0.4749 169 169 165
-0.1843 -0.1283  0.4747 170 169 169
-0.1848 -0.1282  0.4742 169 168 168
-0.1855 -0.1281  0.4739 169 169 169
-0.1863 -0.1281  0.4739 168 168 168
-0.1869 -0.1280  0.4737 168 168 168
-0.1877 -0.1280  0.4737 168 168 168
-0.1885 -0.1280  0.4737 168 168 168
-0.1892 -0.1280  0.4737 168 168 168
-0.1907 -0.1285  0.4754 166 169 168
-0.1915 -0.1285  0.4756 166 169 168
-0.1923 -0.1286  0.4757 166 169 168
-0.1931 -0.1286  0.4757 166 169 168
-0.1939 -0.1286  0.4758 166 169 168
-0.1946 -0.1286  0.4757 166 169 168
-0.1954 -0.1286  0.4757 167 170 169
-0.1961 -0.1285  0.4756 167 170 169
-0.1968 -0.1285  0.4754 167 170 169
-0.1976 -0.1285  0.4754 166 169 168
-0.1983 -0.1285  0.4753 167 170 169
-0.1990 -0.1284  0.4752 166 169 168
-0.1998 -0.1284  0.4752 166 169 168
-0.2006 -0.1284  0.4752 167 170 169
-0.2013 -0.1284  0.4752 166 169 168
-0.2021 -0.1284  0.4752 166 169 168
-0.2030 -0.1285  0.4754 166 169 168
-0.2037 -0.1285  0.4754 167 170 169
-0.2045 -0.1285  0.4754 166 169 168
-0.2053 -0.1285  0.4756 166 169 168
-0.2061 -0.1285  0.4756 165 168 169
-0.2068 -0.1285  0.4754 165 168 169
-0.2076 -0.1285  0.4754 166 169 170
-0.2083 -0.1285  0.4754 166 169 170
-0.2091 -0.1285  0.4754 166 169 170
-0.2099 -0.1285  0.4754 166 169 170
-0.2107 -0.1285  0.4754 165 168 169
-0.2115 -0.1285  0.4756 166 169 170
-0.2122 -0.1285  0.4756 166 169 170
-0.2131 -0.1286  0.4757 166 169 170
-0.2138 -0.1286  0.4757 165 168 169
-0.2146 -0.1286  0.4757 165 168 169
-0.2154 -0.1286  0.4758 166 169 170
-0.2162 -0.1286  0.4758 166 169 170
-0.2170 -0.1286  0.4758 166 169 170
-0.2177 -0.1286  0.4758 167 170 171
-0.2186 -0.1286  0.4759 167 170 171
-0.2194 -0.1287  0.4761 166 169 170
-0.2202 -0.1287  0.4761 166 169 170
-0.2210 -0.1287  0.4763 166 169 170
-0.2220 -0.1289  0.4767 165 168 169
-0.2229 -0.1289  0.4769 165 168 169
-0.2236 -0.1289  0.4769 165 168 167
-0.2255 -0.1295  0.4792 165 168 167
-0.2264 -0.1296  0.4794 167 170 169
-0.2273 -0.1297  0.4797 166 169 168
-0.2280 -0.1297  0.4797 167 170 169
-0.2289 -0.1297  0.4799 166 169 168
-0.2298 -0.1298  0.4801 166 169 168
-0.2305 -0.1298  0.4801 166 169 168
-0.2312 -0.1297  0.4798 168 168 170
-0.2320 -0.1297  0.4798 168 168 170
-0.2326 -0.1296  0.4794 167 167 167
-0.2330 -0.1294  0.4787 168 168 168
-0.2337 -0.1294  0.4787 168 168 168
-0.2341 -0.1292  0.4779 168 168 168
-0.2347 -0.1291  0.4774 166 169 168
-0.2354 -0.1290  0.4773 166 169 168
-0.2361 -0.1290  0.4773 166 169 168
-0.2368 -0.1290  0.4771 166 169 168
-0.2376 -0.1290  0.4771 167 170 169
-0.2383 -0.1290  0.4771 166 169 168
-0.2391 -0.1290  0.4771 166 169 168
-0.2399 -0.1290  0.4771 166 169 168
-0.2406 -0.1290  0.4771 165 168 167
-0.2414 -0.1290  0.4771 167 170 169
-0.2422 -0.1290  0.4771 166 169 168
-0.2430 -0.1290  0.4771 166 169 168
-0.2437 -0.1289  0.4769 166 169 168
-0.2444 -0.1289  0.4769 166 169 168
-0.2452 -0.1289  0.4769 169 169 171
-0.2459 -0.1289  0.4768 169 169 171
-0.2466 -0.1289  0.4767 168 168 170
-0.2474 -0.1289  0.4767 168 168 170
-0.2482 -0.1289  0.4767 168 168 170
-0.2488 -0.1288  0.4764 168 168 170
-0.2496 -0.1288  0.4764 169 169 171
 0.2217 -0.1298  0.4774 161 168 174
 0.2207 -0.1297  0.4769 161 168 174
 0.2200 -0.1297  0.4769 162 169 173
 0.2184 -0.1292  0.4753 162 169 173
 0.2177 -0.1292  0.4753 162 167 172
 0.2170 -0.1293  0.4756 162 167 172
 0.2163 -0.1293  0.4756 163 166 169
 0.2156 -0.1294  0.4758 163 166 169
 0.2151 -0.1296  0.4764 162 165 168
 0.2144 -0.1296  0.4766 163 166 169
 0.2136 -0.1296  0.4766 163 166 169
 0.2121 -0.1291  0.4748 163 166 169
 0.2113 -0.1291  0.4748 162 165 168
 0.2106 -0.1291  0.4748 163 166 169
 0.2100 -0.1292  0.4752 162 165 168
 0.2093 -0.1293  0.4754 162 165 168
 0.2085 -0.1293  0.4754 162 165 168
 0.2080 -0.1294  0.4759 163 166 169
 0.2073 -0.1295  0.4762 163 166 167
 0.2065 -0.1295  0.4762 162 165 166
 0.2059 -0.1296  0.4766 162 165 166
 0.2052 -0.1296  0.4767 160 163 164
 0.2045 -0.1297  0.4768 160 163 164
 0.2037 -0.1297  0.4768 160 163 164
 0.2030 -0.1297  0.4768 159 162 163
 0.2023 -0.1297  0.4769 160 163 164
 0.2015 -0.1297  0.4769 162 165 166
 0.2007 -0.1297  0.4769 162 165 166
 0.1999 -0.1297  0.4769 162 165 166
 0.1991 -0.1297  0.4768 162 165 166
 0.1982 -0.1296  0.4766 160 163 164
 0.1975 -0.1296  0.4766 160 163 164
 0.1966 -0.1295  0.4763 159 162 163
 0.1957 -0.1295  0.4761 160 163 164
 0.1950 -0.1295  0.4761 160 163 164
 0.1942 -0.1295  0.4761 160 163 164
 0.1934 -0.1295  0.4761 160 163 164
 0.1927 -0.1295  0.4762 159 162 163
 0.1920 -0.1296  0.4764 160 163 164
 0.1913 -0.1296  0.4764 160 163 164
 0.1907 -0.1297  0.4768 159 162 163
 0.1899 -0.1297  0.4769 160 163 164
 0.1892 -0.1297  0.4769 160 163 164
 0.1885 -0.1298  0.4772 159 162 163
 0.1877 -0.1298  0.4772 159 162 163
 0.1862 -0.1292  0.4752 160 163 164
 0.1854 -0.1292  0.4752 160 163 164
 0.1846 -0.1292  0.4752 159 162 163
 0.1839 -0.1292  0.4753 159 162 163
 0.1831 -0.1292  0.4753 159 162 163
 0.1825 -0.1293  0.4756 159 162 163
 0.1818 -0.1294  0.4758 158 161 162
 0.1810 -0.1294  0.4758 157 163 163
 0.1804 -0.1295  0.4762 156 162 162
 0.1798 -0.1296  0.4767 158 161 162
 0.1792 -0.1298  0.4772 158 161 162
 0.1785 -0.1298  0.4772 159 162 163
 0.1779 -0.1299  0.4777 158 161 162
 0.1772 -0.1300  0.4779 158 161 160
 0.1764 -0.1300  0.4779 158 161 160
 0.1757 -0.1300  0.4779 160 160 160
 0.1748 -0.1299  0.4778 160 160 160
 0.1741 -0.1299  0.4778 160 160 160
 0.1733 -0.1299  0.4777 160 160 160
 0.1725 -0.1299  0.4777 160 160 162
 0.1717 -0.1299  0.4777 159 159 161
 0.1709 -0.1299  0.4777 160 160 164
 0.1702 -0.1299  0.4777 160 160 164
 0.1694 -0.1299  0.4777 160 160 164
 0.1686 -0.1299  0.4777 159 159 163
 0.1679 -0.1299  0.4777 159 159 163
 0.1670 -0.1298  0.4774 159 159 163
 0.1662 -0.1298  0.4774 157 160 163
 0.1654 -0.1298  0.4773 157 160 163
 0.1646 -0.1297  0.4771 157 160 163
 0.1638 -0.1297  0.4771 157 160 163
 0.1630 -0.1297  0.4769 157 160 163
 0.1622 -0.1297  0.4769 157 160 163
 0.1614 -0.1297  0.4769 159 159 159
 0.1607 -0.1297  0.4771 159 159 159
 0.1599 -0.1297  0.4771 158 158 158
 0.1587 -0.1293  0.4757 158 158 158
 0.1579 -0.1293  0.4757 158 158 158
 0.1572 -0.1294  0.4758 158 158 158
 0.1564 -0.1294  0.4758 158 158 158
 0.1557 -0.1294  0.4759 158 158 158
 0.1550 -0.1295  0.4761 157 157 157
 0.1542 -0.1295  0.4761 157 157 157
 0.1535 -0.1295  0.4762 158 158 158
 0.1528 -0.1296  0.4766 157 157 157
 0.1521 -0.1296  0.4767 159 159 159
 0.1513 -0.1296  0.4767 157 157 157
 0.1506 -0.1297  0.4768 155 155 155
 0.1498 -0.1297  0.4768 157 157 157
 0.1490 -0.1296  0.4766 157 157 157
 0.1482 -0.1296  0.4764 157 157 157
 0.1474 -0.1295  0.4763 157 157 157
 0.1466 -0.1295  0.4763 157 157 157
 0.1458 -0.1295  0.4763 157 157 157
 0.1451 -0.1295  0.4763 155 155 155
 0.1443 -0.1296  0.4764 157 157 157
 0.1436 -0.1296  0.4764 157 157 157
 0.1428 -0.1296  0.4764 155 155 155
 0.1421 -0.1296  0.4767 157 157 157
 0.1414 -0.1297  0.4769 157 157 159
 0.1406 -0.1297  0.4769 155 155 157
 0.1399 -0.1298  0.4772 155 155 157
 0.1392 -0.1298  0.4772 155 155 157
 0.1384 -0.1298  0.4773 155 155 155
 0.1377 -0.1298  0.4773 155 155 155
 0.1369 -0.1298  0.4773 155 155 155
 0.1362 -0.1298  0.4774 155 155 155
 0.1354 -0.1298  0.4774 155 155 155
 0.1346 -0.1298  0.4774 154 154 154
 0.1339 -0.1299  0.4777 154 154 154
 0.1332 -0.1300  0.4779 154 154 154
 0.1325 -0.1300  0.4782 154 154 154
 0.1317 -0.1300  0.4782 155 155 155
 0.1310 -0.1301  0.4784 154 154 154
 0.1303 -0.1301  0.4786 154 154 154
 0.1296 -0.1302  0.4787 155 155 155
 0.1287 -0.1301  0.4784 155 155 155
 0.1279 -0.1301  0.4783 155 155 155
 0.1271 -0.1301  0.4783 155 155 155
 0.1263 -0.1300  0.4782 156 155 155
 0.1250 -0.1295  0.4761 155 154 154
 0.1242 -0.1295  0.4761 154 154 154
 0.1235 -0.1295  0.4761 154 154 154
 0.1227 -0.1295  0.4761 155 155 155
 0.1219 -0.1295  0.4761 155 155 155
 0.1212 -0.1295  0.4762 154 154 154
 0.1204 -0.1295  0.4762 154 154 154
 0.1197 -0.1295  0.4762 154 154 154
 0.1190 -0.1296  0.4764 155 155 155
 0.1182 -0.1296  0.4766 155 155 155
 0.1174 -0.1296  0.4766 154 154 154
 0.1167 -0.1296  0.4767 153 156 155
 0.1160 -0.1297  0.4768 152 155 154
 0.1152 -0.1297  0.4768 152 155 154
 0.1144 -0.1296  0.4767 152 155 154
 0.1136 -0.1296  0.4766 153 156 155
 0.1128 -0.1296  0.4764 151 154 153
 0.1120 -0.1296  0.4764 154 154 154
 0.1113 -0.1296  0.4764 154 154 154
 0.1105 -0.1296  0.4764 157 157 157
 0.1097 -0.1296  0.4764 153 153 153
 0.1090 -0.1296  0.4766 154 154 154
 0.1082 -0.1296  0.4766 154 154 154
 0.1074 -0.1296  0.4766 155 155 151
 0.1067 -0.1296  0.4766 155 155 151
 0.1059 -0.1296  0.4766 155 155 151
 0.1051 -0.1296  0.4766 154 154 150
 0.1044 -0.1296  0.4766 154 153 153
 0.1036 -0.1296  0.4766 155 154 154
 0.1029 -0.1296  0.4767 154 153 153
 0.1021 -0.1296  0.4767 155 154 154
 0.1013 -0.1296  0.4767 155 154 154
 0.1006 -0.1297  0.4768 154 153 153
 0.0998 -0.1297  0.4769 154 153 153
 0.0991 -0.1297  0.4769 154 153 153
 0.0983 -0.1297  0.4769 154 153 153
 0.0975 -0.1297  0.4769 154 153 153
 0.0967 -0.1297  0.4769 154 153 153
 0.0960 -0.1297  0.4769 154 153 153
 0.0952 -0.1297  0.4768 154 153 153
 0.0944 -0.1297  0.4768 154 153 153
 0.0936 -0.1297  0.4768 154 153 153
 0.0929 -0.1297  0.4768 155 154 154
 0.0921 -0.1297  0.4769 154 153 153
 0.0914 -0.1298  0.4772 154 153 153
 0.0907 -0.1298  0.4774 154 153 153
 0.0899 -0.1298  0.4774 154 153 153
 0.0892 -0.1299  0.4776 154 153 153
 0.0884 -0.1299  0.4777 153 152 152
 0.0876 -0.1299  0.4777 154 153 153
 0.0869 -0.1299  0.4777 154 153 153
 0.0861 -0.1299  0.4776 154 153 153
 0.0853 -0.1298  0.4774 154 153 153
 0.0845 -0.1298  0.4774 154 153 153
 0.0837 -0.1298  0.4774 154 153 153
 0.0830 -0.1298  0.4774 154 153 153
 0.0822 -0.1299  0.4776 154 153 153
 0.0815 -0.1299  0.4777 153 152 152
 0.0807 -0.1299  0.4777 154 153 153
 0.0797 -0.1295  0.4763 154 153 153
 0.0789 -0.1295  0.4763 154 153 153
 0.0782 -0.1296  0.4764 153 152 152
 0.0774 -0.1296  0.4764 154 153 153
 0.0766 -0.1296  0.4764 154 153 153
 0.0759 -0.1296  0.4766 154 153 153
 0.0751 -0.1296  0.4766 154 153 153
 0.0743 -0.1296  0.4766 155 154 154
 0.0736 -0.1296  0.4767 154 153 153
 0.0728 -0.1296  0.4767 155 154 154
 0.0721 -0.1296  0.4767 154 153 153
 0.0713 -0.1296  0.4767 154 153 153
 0.0705 -0.1296  0.4767 154 153 153
 0.0698 -0.1296  0.4767 154 153 153
 0.0690 -0.1296  0.4767 153 152 152
 0.0682 -0.1296  0.4766 154 153 153
 0.0674 -0.1296  0.4766 154 153 153
 0.0667 -0.1296  0.4766 154 153 153
 0.0659 -0.1296  0.4767 154 153 153
 0.0651 -0.1296  0.4767 154 153 153
 0.0644 -0.1296  0.4767 154 153 153
 0.0636 -0.1297  0.4768 154 153 153
 0.0628 -0.1297  0.4768 156 152 153
 0.0621 -0.1297  0.4768 156 152 153
 0.0613 -0.1297  0.4768 156 152 153
 0.0605 -0.1297  0.4768 156 152 153
 0.0598 -0.1297  0.4768 154 153 153
 0.0590 -0.1296  0.4767 154 153 153
 0.0582 -0.1296  0.4767 154 153 153
 0.0574 -0.1296  0.4764 154 153 153
 0.0566 -0.1296  0.4764 155 154 154
 0.0559 -0.1296  0.4764 154 153 153
 0.0551 -0.1295  0.4763 154 154 150
 0.0543 -0.1295  0.4763 155 155 151
 0.0535 -0.1295  0.4763 154 154 150
 0.0528 -0.1295  0.4763 154 154 150
 0.0520 -0.1296  0.4764 155 154 154
 0.0513 -0.1296  0.4766 155 154 154
 0.0505 -0.1296  0.4767 155 155 155
 0.0497 -0.1296  0.4767 154 154 154
 0.0490 -0.1296  0.4767 153 153 155
 0.0482 -0.1297  0.4768 153 153 155
 0.0475 -0.1297  0.4769 154 154 154
 0.0467 -0.1297  0.4769 153 153 153
 0.0459 -0.1297  0.4769 154 154 154
 0.0452 -0.1297  0.4771 153 153 153
 0.0444 -0.1297  0.4771 154 154 154
 0.0436 -0.1298  0.4772 153 153 153
 0.0429 -0.1298  0.4772 153 153 153
 0.0421 -0.1298  0.4772 153 153 153
 0.0413 -0.1298  0.4773 155 154 154
 0.0406 -0.1298  0.4774 155 154 154
 0.0398 -0.1298  0.4774 155 154 154
 0.0390 -0.1298  0.4774 155 154 154
 0.0383 -0.1298  0.4774 155 154 154
 0.0375 -0.1298  0.4774 155 154 154
 0.0367 -0.1298  0.4774 155 154 154
 0.0359 -0.1298  0.4774 155 154 154
 0.0352 -0.1298  0.4774 155 154 154
 0.0344 -0.1298  0.4774 155 154 154
 0.0336 -0.1298  0.4773 155 154 154
 0.0328 -0.1298  0.4773 155 154 154
 0.0321 -0.1298  0.4774 156 155 155
 0.0313 -0.1298  0.4774 156 155 155
 0.0305 -0.1298  0.4774 156 155 155
 0.0298 -0.1299  0.4776 156 155 155
 0.0290 -0.1299  0.4776 155 154 154
 0.0282 -0.1299  0.4777 156 155 155
 0.0275 -0.1299  0.4777 155 154 154
 0.0267 -0.1299  0.4777 155 154 154
 0.0259 -0.1299  0.4778 156 155 155
 0.0252 -0.1299  0.4778 156 155 155
 0.0244 -0.1299  0.4778 156 156 152
 0.0236 -0.1299  0.4778 156 156 152
 0.0228 -0.1299  0.4777 158 158 154
 0.0221 -0.1298  0.4774 156 156 152
 0.0213 -0.1298  0.4774 155 155 151
 0.0205 -0.1298  0.4773 155 155 151
 0.0197 -0.1298  0.4772 154 154 150
 0.0190 -0.1297  0.4769 155 155 151
 0.0182 -0.1297  0.4769 154 155 151
 0.0174 -0.1297  0.4768 155 156 152
 0.0166 -0.1297  0.4768 156 156 152
 0.0159 -0.1297  0.4768 158 158 154
 0.0151 -0.1297  0.4768 158 157 157
 0.0143 -0.1297  0.4768 158 157 157
 0.0136 -0.1297  0.4768 158 157 157
 0.0128 -0.1297  0.4769 158 157 157
 0.0120 -0.1297  0.4771 158 157 157
 0.0113 -0.1298  0.4773 158 157 157
 0.0105 -0.1298  0.4773 156 155 155
 0.0097 -0.1298  0.4774 158 157 157
 0.0090 -0.1299  0.4776 158 157 157
 0.0082 -0.1299  0.4777 158 157 157
 0.0074 -0.1299  0.4777 159 158 158
 0.0066 -0.1299  0.4777 158 157 157
 0.0059 -0.1299  0.4777 156 155 155
 0.0051 -0.1299  0.4777 158 157 157
 0.0043 -0.1299  0.4777 157 157 157
 0.0036 -0.1299  0.4777 157 157 157
 0.0028 -0.1299  0.4777 157 157 157
 0.0020 -0.1299  0.4777 157 157 157
 0.0012 -0.1299  0.4776 157 157 157
 0.0005 -0.1298  0.4774 157 157 157
-0.0003 -0.1298  0.4774 158 157 157
-0.0011 -0.1298  0.4774 159 158 158
-0.0018 -0.1299  0.4776 159 158 158
-0.0026 -0.1299  0.4776 159 158 158
-0.0034 -0.1299  0.4777 158 157 157
-0.0042 -0.1300  0.4779 159 158 158
-0.0049 -0.1300  0.4779 159 158 158
-0.0057 -0.1300  0.4779 159 158 158
-0.0065 -0.1300  0.4781 159 158 158
-0.0072 -0.1300  0.4782 159 158 158
-0.0080 -0.1300  0.4782 159 158 158
-0.0088 -0.1300  0.4781 160 159 159
-0.0096 -0.1300  0.4779 160 159 159
-0.0103 -0.1299  0.4777 160 159 159
-0.0111 -0.1299  0.4777 158 158 160
-0.0119 -0.1298  0.4774 158 158 160
-0.0126 -0.1298  0.4774 158 158 160
-0.0134 -0.1298  0.4773 158 158 160
-0.0142 -0.1298  0.4773 159 159 159
-0.0149 -0.1298  0.4774 159 159 159
-0.0157 -0.1298  0.4773 158 158 158
-0.0165 -0.1298  0.4773 159 159 159
-0.0172 -0.1298  0.4772 159 159 161
-0.0180 -0.1298  0.4772 159 159 161
-0.0188 -0.1297  0.4771 159 159 161
-0.0195 -0.1297  0.4769 160 160 162
-0.0203 -0.1297  0.4768 160 160 162
-0.0211 -0.1297  0.4768 160 160 162
-0.0218 -0.1296  0.4767 160 160 162
-0.0226 -0.1296  0.4767 159 159 161
-0.0234 -0.1296  0.4767 160 160 164
-0.0242 -0.1296  0.4767 160 160 164
-0.0249 -0.1296  0.4767 162 161 163
-0.0257 -0.1297  0.4769 162 161 163
-0.0265 -0.1297  0.4771 162 161 163
-0.0273 -0.1298  0.4773 163 162 164
-0.0281 -0.1298  0.4774 162 161 163
-0.0288 -0.1298  0.4774 162 161 163
-0.0296 -0.1299  0.4776 161 161 163
-0.0304 -0.1299  0.4776 162 162 164
-0.0312 -0.1299  0.4777 162 162 164
-0.0319 -0.1299  0.4776 162 162 164
-0.0327 -0.1298  0.4774 162 162 164
-0.0334 -0.1298  0.4773 164 164 166
-0.0342 -0.1298  0.4773 164 164 166
-0.0350 -0.1297  0.4771 162 162 164
-0.0357 -0.1297  0.4769 162 162 164
-0.0365 -0.1296  0.4767 162 162 164
-0.0372 -0.1296  0.4767 162 162 164
-0.0380 -0.1296  0.4767 165 165 167
-0.0388 -0.1296  0.4767 162 165 166
-0.0396 -0.1296  0.4767 163 166 167
-0.0403 -0.1296  0.4767 163 166 167
-0.0411 -0.1296  0.4767 163 166 167
-0.0419 -0.1297  0.4769 163 166 167
-0.0427 -0.1297  0.4769 163 166 167
-0.0434 -0.1298  0.4772 163 166 167
-0.0442 -0.1298  0.4773 164 167 168
-0.0450 -0.1298  0.4773 164 167 168
-0.0458 -0.1298  0.4774 164 167 168
-0.0466 -0.1298  0.4774 164 167 168
-0.0473 -0.1298  0.4774 165 168 169
-0.0481 -0.1298  0.4774 165 168 169
-0.0489 -0.1298  0.4773 165 168 169
-0.0496 -0.1298  0.4772 165 168 169
-0.0504 -0.1298  0.4772 165 168 169
-0.0511 -0.1297  0.4769 165 168 169
-0.0519 -0.1297  0.4768 166 169 170
-0.0526 -0.1296  0.4766 166 169 170
-0.0534 -0.1296  0.4766 166 169 170
-0.0541 -0.1295  0.4763 166 169 170
-0.0549 -0.1295  0.4762 167 170 171
-0.0557 -0.1295  0.4762 167 170 171
-0.0564 -0.1295  0.4762 167 170 171
-0.0572 -0.1295  0.4762 167 170 171
-0.0580 -0.1295  0.4762 167 170 171
-0.0587 -0.1295  0.4762 169 172 173
-0.0595 -0.1295  0.4763 169 172 173
-0.0603 -0.1296  0.4764 169 172 173
-0.0611 -0.1296  0.4764 169 172 173
-0.0618 -0.1296  0.4764 169 172 173
-0.0626 -0.1296  0.4764 169 172 173
-0.0634 -0.1296  0.4764 169 172 173
-0.0642 -0.1296  0.4764 170 173 174
-0.0649 -0.1296  0.4764 170 173 174
-0.0657 -0.1296  0.4764 171 174 175
-0.0665 -0.1296  0.4766 171 174 175
-0.0672 -0.1296  0.4766 172 175 176
-0.0680 -0.1296  0.4767 172 175 176
-0.0688 -0.1296  0.4767 173 176 177
-0.0696 -0.1297  0.4768 173 176 179
-0.0704 -0.1297  0.4768 173 176 179
-0.0711 -0.1297  0.4769 171 177 179
-0.0719 -0.1297  0.4768 172 178 180
-0.0727 -0.1297  0.4768 176 179 182
-0.0734 -0.1297  0.4768 176 179 182
-0.0742 -0.1296  0.4767 177 180 181
-0.0750 -0.1296  0.4767 177 180 181
-0.0757 -0.1296  0.4767 178 181 182
-0.0765 -0.1296  0.4767 178 181 182
-0.0773 -0.1296  0.4767 179 182 183
-0.0780 -0.1296  0.4766 178 181 182
-0.0788 -0.1296  0.4766 178 181 182
-0.0796 -0.1296  0.4766 180 183 184
-0.0803 -0.1296  0.4764 180 183 184
-0.0811 -0.1296  0.4764 181 184 185
-0.0818 -0.1295  0.4762 181 184 185
-0.0826 -0.1295  0.4762 183 186 187
-0.0833 -0.1294  0.4759 184 187 188
-0.0840 -0.1293  0.4757 184 187 188
-0.0847 -0.1293  0.4754 184 187 188
-0.0855 -0.1293  0.4754 184 187 188
-0.0863 -0.1293  0.4754 184 187 188
-0.0870 -0.1292  0.4752 184 187 188
-0.0878 -0.1292  0.4752 183 186 187
-0.0885 -0.1292  0.4752 183 186 187
-0.0893 -0.1292  0.4752 183 186 187
-0.0901 -0.1292  0.4752 183 186 187
-0.0908 -0.1292  0.4752 181 184 185
-0.0916 -0.1292  0.4752 183 186 187
-0.0924 -0.1292  0.4752 181 184 185
-0.0931 -0.1292  0.4752 183 186 187
-0.0939 -0.1292  0.4752 183 186 187
-0.0947 -0.1292  0.4752 183 186 187
-0.0954 -0.1292  0.4752 183 186 187
-0.0962 -0.1292  0.4752 183 186 187
-0.0970 -0.1292  0.4752 181 184 185
-0.0977 -0.1292  0.4752 183 186 187
-0.0985 -0.1292  0.4752 181 184 185
-0.0993 -0.1292  0.4752 183 186 187
-0.1000 -0.1292  0.4752 183 186 187
-0.1008 -0.1292  0.4752 183 186 187
-0.1016 -0.1292  0.4752 183 186 187
-0.1023 -0.1292  0.4751 183 186 187
-0.1031 -0.1292  0.4751 183 186 187
-0.1039 -0.1292  0.4751 183 186 187
-0.1046 -0.1291  0.4749 184 187 188
-0.1054 -0.1291  0.4749 183 186 187
-0.1061 -0.1291  0.4748 184 187 188
-0.1069 -0.1291  0.4748 183 186 187
-0.1076 -0.1291  0.4747 183 186 187
-0.1084 -0.1291  0.4747 184 187 188
-0.1091 -0.1290  0.4744 183 186 185
-0.1098 -0.1290  0.4744 183 186 185
-0.1106 -0.1290  0.4743 183 186 185
-0.1113 -0.1289  0.4741 184 187 186
-0.1120 -0.1289  0.4739 184 187 186
-0.1128 -0.1289  0.4739 184 187 186
-0.1136 -0.1289  0.4739 184 187 186
-0.1143 -0.1288  0.4738 183 186 185
-0.1151 -0.1288  0.4738 183 186 185
-0.1158 -0.1288  0.4738 183 186 185
-0.1166 -0.1288  0.4738 183 186 185
-0.1174 -0.1289  0.4739 181 184 183
-0.1182 -0.1289  0.4739 183 186 185
-0.1189 -0.1289  0.4741 181 184 183
-0.1197 -0.1289  0.4741 181 184 183
-0.1205 -0.1289  0.4742 181 184 183
-0.1213 -0.1289  0.4742 181 184 183
-0.1221 -0.1290  0.4743 180 183 182
-0.1228 -0.1290  0.4743 181 184 183
-0.1236 -0.1289  0.4742 181 184 183
-0.1243 -0.1289  0.4739 180 183 182
-0.1250 -0.1289  0.4739 181 184 183
-0.1257 -0.1288  0.4737 179 182 181
-0.1265 -0.1288  0.4736 180 183 182
-0.1272 -0.1288  0.4736 180 183 182
-0.1280 -0.1288  0.4736 179 182 181
-0.1288 -0.1288  0.4736 179 182 181
-0.1295 -0.1288  0.4736 180 183 182
-0.1303 -0.1288  0.4736 179 182 181
-0.1311 -0.1288  0.4737 179 182 181
-0.1319 -0.1288  0.4737 178 181 180
-0.1326 -0.1288  0.4737 179 182 181
-0.1334 -0.1288  0.4737 178 181 180
-0.1348 -0.1294  0.4758 178 181 180
-0.1355 -0.1294  0.4758 178 181 180
-0.1363 -0.1294  0.4759 177 180 179
-0.1371 -0.1294  0.4758 176 179 178
-0.1378 -0.1294  0.4758 177 180 179
-0.1385 -0.1293  0.4756 176 179 178
-0.1392 -0.1292  0.4753 176 179 178
-0.1399 -0.1291  0.4749 174 177 176
-0.1406 -0.1291  0.4749 174 177 176
-0.1413 -0.1291  0.4747 173 176 175
-0.1420 -0.1290  0.4743 173 176 175
-0.1427 -0.1289  0.4741 175 175 175
-0.1434 -0.1289  0.4741 175 175 175
-0.1442 -0.1289  0.4739 175 175 175
-0.1449 -0.1289  0.4739 174 174 174
-0.1457 -0.1289  0.4739 174 174 176
-0.1465 -0.1289  0.4739 175 175 177
-0.1473 -0.1289  0.4741 171 174 175
-0.1481 -0.1290  0.4743 171 174 175
-0.1490 -0.1290  0.4746 171 174 175
-0.1497 -0.1290  0.4746 171 174 175
-0.1506 -0.1291  0.4748 171 174 175
-0.1514 -0.1292  0.4751 171 174 175
-0.1522 -0.1292  0.4751 171 174 175
-0.1530 -0.1292  0.4751 170 173 174
-0.1537 -0.1291  0.4749 172 172 174
-0.1544 -0.1291  0.4747 172 172 174
-0.1551 -0.1291  0.4747 172 172 172
-0.1559 -0.1291  0.4747 173 173 173
-0.1566 -0.1290  0.4744 173 174 170
-0.1573 -0.1290  0.4743 172 173 169
-0.1581 -0.1290  0.4743 172 173 169
-0.1588 -0.1289  0.4742 171 172 168
-0.1596 -0.1289  0.4742 171 172 168
-0.1603 -0.1289  0.4742 171 172 168
-0.1611 -0.1289  0.4742 171 172 168
-0.1619 -0.1289  0.4742 171 172 168
-0.1627 -0.1290  0.4743 171 171 171
-0.1635 -0.1290  0.4744 171 171 171
-0.1642 -0.1290  0.4744 169 172 171
-0.1651 -0.1290  0.4746 169 172 171
-0.1659 -0.1291  0.4748 169 172 171
-0.1667 -0.1291  0.4749 167 170 169
-0.1675 -0.1291  0.4749 170 173 172
-0.1682 -0.1291  0.4749 169 172 171
-0.1689 -0.1291  0.4747 169 172 171
-0.1697 -0.1291  0.4747 167 170 169
-0.1703 -0.1290  0.4743 167 170 169
-0.1710 -0.1289  0.4739 167 170 169
-0.1717 -0.1289  0.4739 169 169 169
-0.1724 -0.1288  0.4737 169 169 169
-0.1732 -0.1288  0.4737 169 169 169
-0.1739 -0.1288  0.4737 169 169 169
-0.1748 -0.1289  0.4739 168 168 168
-0.1755 -0.1289  0.4739 169 169 169
-0.1763 -0.1289  0.4739 169 169 169
-0.1771 -0.1289  0.4741 169 169 169
-0.1779 -0.1289  0.4741 168 168 168
-0.1786 -0.1289  0.4739 168 168 168
-0.1794 -0.1289  0.4739 168 169 165
-0.1807 -0.1293  0.4754 168 169 165
-0.1815 -0.1293  0.4754 170 170 166
-0.1822 -0.1292  0.4752 170 170 166
-0.1828 -0.1291  0.4749 169 169 165
-0.1836 -0.1291  0.4749 170 170 166
-0.1843 -0.1291  0.4747 170 169 169
-0.1848 -0.1289  0.4742 169 168 168
-0.1855 -0.1289  0.4739 169 169 169
-0.1863 -0.1289  0.4739 168 168 168
-0.1869 -0.1288  0.4737 168 168 168
-0.1877 -0.1288  0.4737 169 169 169
-0.1885 -0.1288  0.4737 169 169 169
-0.1892 -0.1288  0.4737 168 168 168
-0.1900 -0.1288  0.4738 166 169 168
-0.1909 -0.1289  0.4739 166 169 168
-0.1917 -0.1289  0.4741 167 170 169
-0.1924 -0.1289  0.4741 166 169 168
-0.1933 -0.1289  0.4742 166 169 168
-0.1940 -0.1289  0.4741 166 169 168
-0.1947 -0.1289  0.4741 167 170 169
-0.1955 -0.1289  0.4741 167 170 169
-0.1962 -0.1289  0.4739 167 170 169
-0.1970 -0.1289  0.4739 166 169 168
-0.1977 -0.1289  0.4739 166 169 168
-0.1985 -0.1288  0.4738 166 169 168
-0.1992 -0.1288  0.4738 166 169 168
-0.2000 -0.1288  0.4738 167 170 169
-0.2008 -0.1289  0.4739 166 169 168
-0.2016 -0.1289  0.4741 166 169 168
-0.2024 -0.1289  0.4742 167 170 169
-0.2032 -0.1289  0.4742 166 169 168
-0.2041 -0.1290  0.4744 166 169 170
-0.2048 -0.1290  0.4744 166 169 170
-0.2056 -0.1290  0.4744 166 169 170
-0.2063 -0.1290  0.4743 166 169 170
-0.2070 -0.1289  0.4742 166 169 170
-0.2078 -0.1289  0.4742 166 169 170
-0.2086 -0.1289  0.4742 166 169 170
-0.2093 -0.1289  0.4742 166 169 170
-0.2101 -0.1289  0.4742 165 168 169
-0.2109 -0.1289  0.4742 166 169 170
-0.2116 -0.1289  0.4742 166 169 170
-0.2124 -0.1289  0.4742 166 169 170
-0.2132 -0.1289  0.4742 165 168 169
-0.2139 -0.1289  0.4742 165 168 169
-0.2154 -0.1294  0.4758 166 169 170
-0.2162 -0.1294  0.4758 166 169 170
-0.2170 -0.1294  0.4758 168 168 168
-0.2177 -0.1294  0.4758 168 168 168
-0.2186 -0.1294  0.4759 168 168 168
-0.2194 -0.1295  0.4761 168 168 168
-0.2202 -0.1295  0.4761 169 169 169
-0.2210 -0.1295  0.4763 168 168 168
-0.2220 -0.1296  0.4767 167 167 167
-0.2229 -0.1297  0.4769 167 167 167
-0.2236 -0.1297  0.4769 168 168 168
-0.2246 -0.1298  0.4773 167 167 167
-0.2256 -0.1299  0.4778 167 170 169
-0.2264 -0.1299  0.4778 166 169 168
-0.2273 -0.1300  0.4781 166 169 168
-0.2281 -0.1301  0.4783 166 169 168
-0.2289 -0.1301  0.4783 166 169 168
-0.2296 -0.1300  0.4782 166 169 168
-0.2303 -0.1300  0.4779 165 168 167
-0.2311 -0.1300  0.4779 166 169 168
-0.2316 -0.1299  0.4776 167 167 167
-0.2320 -0.1297  0.4768 168 168 168
-0.2328 -0.1297  0.4768 167 167 167
-0.2333 -0.1295  0.4762 168 168 168
-0.2339 -0.1294  0.4758 166 169 168
-0.2346 -0.1294  0.4758 166 169 168
-0.2353 -0.1293  0.4756 166 169 168
-0.2360 -0.1293  0.4756 166 169 168
-0.2368 -0.1293  0.4756 166 169 168
-0.2376 -0.1293  0.4756 166 169 168
-0.2384 -0.1293  0.4757 166 169 168
-0.2392 -0.1293  0.4757 166 169 168
-0.2401 -0.1294  0.4759 165 168 167
-0.2408 -0.1294  0.4759 166 169 168
-0.2416 -0.1294  0.4759 166 169 168
-0.2424 -0.1294  0.4759 166 169 168
-0.2432 -0.1294  0.4759 166 169 168
-0.2439 -0.1294  0.4759 166 169 168
-0.2452 -0.1297  0.4769 169 169 171
-0.2459 -0.1297  0.4768 169 169 171
-0.2466 -0.1296  0.4767 168 168 170
-0.2474 -0.1296  0.4767 168 168 170
-0.2482 -0.1296  0.4767 168 168 170
-0.2488 -0.1296  0.4764 168 168 170
-0.2496 -0.1296  0.4764 168 168 170
 0.2237 -0.1308  0.4783 163 165 173
 0.2229 -0.1308  0.4783 162 164 172
 0.2212 -0.1303  0.4763 162 167 174
 0.2199 -0.1300  0.4752 162 167 174
 0.2192 -0.1300  0.4752 162 167 172
 0.2177 -0.1296  0.4737 163 168 173
 0.2169 -0.1295  0.4736 164 166 172
 0.2161 -0.1295  0.4736 164 166 172
 0.2154 -0.1295  0.4736 164 166 172
 0.2146 -0.1296  0.4737 163 165 171
 0.2139 -0.1296  0.4738 163 166 169
 0.2132 -0.1296  0.4738 163 166 169
 0.2126 -0.1297  0.4742 163 166 169
 0.2119 -0.1298  0.4744 163 166 169
 0.2113 -0.1299  0.4748 162 165 168
 0.2106 -0.1299  0.4748 163 166 169
 0.2100 -0.1300  0.4752 162 165 168
 0.2093 -0.1300  0.4754 163 166 169
 0.2085 -0.1300  0.4754 162 165 168
 0.2080 -0.1302  0.4759 162 165 168
 0.2073 -0.1303  0.4762 163 166 167
 0.2065 -0.1303  0.4762 162 165 166
 0.2052 -0.1299  0.4749 162 165 166
 0.2045 -0.1299  0.4749 162 165 166
 0.2037 -0.1299  0.4749 162 165 166
 0.2029 -0.1299  0.4748 160 163 164
 0.2021 -0.1299  0.4748 160 163 164
 0.2013 -0.1298  0.4747 159 162 163
 0.2005 -0.1298  0.4747 162 165 166
 0.1997 -0.1298  0.4744 163 166 167
 0.1989 -0.1298  0.4744 162 165 166
 0.1981 -0.1298  0.4744 162 165 166
 0.1973 -0.1297  0.4742 160 163 164
 0.1965 -0.1297  0.4742 160 163 164
 0.1957 -0.1297  0.4741 159 162 163
 0.1949 -0.1297  0.4741 162 165 166
 0.1941 -0.1297  0.4741 160 163 164
 0.1934 -0.1297  0.4741 160 163 164
 0.1927 -0.1297  0.4742 159 162 163
 0.1920 -0.1298  0.4744 159 162 163
 0.1914 -0.1299  0.4749 160 163 164
 0.1907 -0.1299  0.4749 160 163 164
 0.1900 -0.1300  0.4752 159 162 163
 0.1893 -0.1300  0.4753 159 162 163
 0.1885 -0.1300  0.4753 161 161 163
 0.1877 -0.1300  0.4752 161 161 163
 0.1869 -0.1300  0.4752 159 162 163
 0.1862 -0.1300  0.4752 160 163 164
 0.1854 -0.1300  0.4752 159 162 163
 0.1846 -0.1300  0.4752 159 162 163
 0.1839 -0.1300  0.4753 159 162 163
 0.1831 -0.1300  0.4753 159 162 163
 0.1825 -0.1301  0.4756 159 162 163
 0.1818 -0.1302  0.4758 158 161 162
 0.1810 -0.1302  0.4758 157 163 163
 0.1800 -0.1300  0.4752 156 162 162
 0.1793 -0.1300  0.4752 158 161 162
 0.1787 -0.1301  0.4757 159 162 163
 0.1779 -0.1301  0.4757 158 161 162
 0.1774 -0.1303  0.4764 158 161 162
 0.1767 -0.1304  0.4767 158 161 160
 0.1760 -0.1304  0.4767 158 161 160
 0.1752 -0.1304  0.4767 160 160 160
 0.1744 -0.1304  0.4766 161 161 161
 0.1736 -0.1304  0.4766 160 160 162
 0.1728 -0.1303  0.4764 160 160 162
 0.1720 -0.1303  0.4764 160 160 162
 0.1713 -0.1303  0.4764 160 160 162
 0.1705 -0.1303  0.4763 160 160 162
 0.1696 -0.1303  0.4762 159 159 161
 0.1689 -0.1303  0.4762 160 160 162
 0.1681 -0.1302  0.4761 160 160 162
 0.1672 -0.1302  0.4759 159 159 161
 0.1664 -0.1301  0.4757 159 159 161
 0.1656 -0.1301  0.4757 159 159 163
 0.1648 -0.1301  0.4756 159 159 163
 0.1640 -0.1300  0.4754 157 160 163
 0.1632 -0.1300  0.4754 157 160 163
 0.1624 -0.1300  0.4753 156 159 162
 0.1617 -0.1300  0.4753 157 160 163
 0.1609 -0.1300  0.4753 159 159 159
 0.1602 -0.1300  0.4754 159 159 159
 0.1594 -0.1300  0.4754 158 158 158
 0.1587 -0.1301  0.4756 158 158 158
 0.1579 -0.1301  0.4757 158 158 158
 0.1572 -0.1302  0.4758 158 158 158
 0.1564 -0.1302  0.4758 158 158 158
 0.1557 -0.1302  0.4759 158 158 158
 0.1550 -0.1302  0.4761 158 158 158
 0.1542 -0.1302  0.4761 158 158 158
 0.1535 -0.1303  0.4762 158 158 158
 0.1528 -0.1304  0.4766 157 157 157
 0.1521 -0.1304  0.4767 159 159 159
 0.1513 -0.1304  0.4767 158 158 158
 0.1501 -0.1300  0.4752 155 155 155
 0.1493 -0.1300  0.4752 157 157 157
 0.1486 -0.1300  0.4752 157 157 157
 0.1478 -0.1300  0.4752 157 157 157
 0.1470 -0.1299  0.4751 157 157 157
 0.1462 -0.1299  0.4751 157 157 157
 0.1455 -0.1299  0.4751 157 157 157
 0.1447 -0.1299  0.4751 155 155 155
 0.1440 -0.1300  0.4752 155 155 155
 0.1432 -0.1300  0.4753 155 155 155
 0.1425 -0.1300  0.4753 157 157 157
 0.1417 -0.1300  0.4754 155 155 155
 0.1410 -0.1301  0.4757 157 157 159
 0.1403 -0.1301  0.4757 155 155 157
 0.1396 -0.1302  0.4759 155 155 155
 0.1388 -0.1302  0.4759 155 155 155
 0.1380 -0.1302  0.4759 155 155 155
 0.1373 -0.1302  0.4759 155 155 155
 0.1365 -0.1302  0.4758 155 155 155
 0.1357 -0.1302  0.4758 155 155 155
 0.1349 -0.1302  0.4758 155 155 155
 0.1342 -0.1302  0.4758 155 155 155
 0.1334 -0.1302  0.4759 155 155 155
 0.1327 -0.1303  0.4762 154 154 154
 0.1320 -0.1303  0.4763 154 154 154
 0.1312 -0.1303  0.4763 154 154 154
 0.1305 -0.1303  0.4764 155 155 155
 0.1298 -0.1304  0.4766 154 154 154
 0.1290 -0.1304  0.4766 154 154 154
 0.1282 -0.1303  0.4764 155 155 155
 0.1274 -0.1303  0.4763 155 155 155
 0.1266 -0.1303  0.4763 155 155 155
 0.1258 -0.1303  0.4762 155 155 155
 0.1250 -0.1302  0.4761 155 155 155
 0.1242 -0.1302  0.4761 154 154 154
 0.1235 -0.1302  0.4761 154 154 154
 0.1227 -0.1302  0.4761 155 155 155
 0.1219 -0.1302  0.4761 155 155 155
 0.1212 -0.1303  0.4762 154 154 154
 0.1204 -0.1303  0.4762 154 154 154
 0.1197 -0.1303  0.4762 154 154 154
 0.1190 -0.1303  0.4764 155 155 155
 0.1182 -0.1304  0.4766 155 155 155
 0.1174 -0.1304  0.4766 154 154 154
 0.1167 -0.1304  0.4767 153 156 155
 0.1160 -0.1304  0.4768 152 155 154
 0.1152 -0.1304  0.4768 152 155 154
 0.1139 -0.1299  0.4748 152 155 154
 0.1132 -0.1299  0.4748 152 155 154
 0.1124 -0.1299  0.4748 152 155 154
 0.1117 -0.1299  0.4749 154 154 154
 0.1109 -0.1299  0.4749 153 153 153
 0.1101 -0.1299  0.4749 155 155 155
 0.1094 -0.1299  0.4749 154 154 154
 0.1086 -0.1299  0.4749 155 155 155
 0.1078 -0.1299  0.4749 154 154 154
 0.1071 -0.1299  0.4749 155 155 151
 0.1063 -0.1299  0.4749 155 155 151
 0.1055 -0.1299  0.4749 155 154 154
 0.1048 -0.1299  0.4749 154 153 153
 0.1040 -0.1299  0.4749 154 153 153
 0.1032 -0.1299  0.4749 155 154 154
 0.1025 -0.1299  0.4749 155 154 154
 0.1017 -0.1299  0.4749 154 153 153
 0.1010 -0.1299  0.4751 155 154 154
 0.1002 -0.1299  0.4751 154 153 153
 0.0994 -0.1299  0.4751 154 153 153
 0.0987 -0.1299  0.4751 154 153 153
 0.0979 -0.1300  0.4752 154 153 153
 0.0972 -0.1300  0.4752 154 153 153
 0.0964 -0.1300  0.4752 154 153 153
 0.0956 -0.1300  0.4752 154 153 153
 0.0949 -0.1300  0.4752 154 153 153
 0.0941 -0.1300  0.4752 154 153 153
 0.0933 -0.1300  0.4752 154 153 153
 0.0926 -0.1300  0.4752 155 154 154
 0.0918 -0.1300  0.4752 154 153 153
 0.0911 -0.1300  0.4754 154 153 153
 0.0903 -0.1300  0.4754 154 153 153
 0.0896 -0.1301  0.4756 154 153 153
 0.0888 -0.1301  0.4757 154 153 153
 0.0881 -0.1302  0.4758 154 153 153
 0.0873 -0.1302  0.4758 155 154 154
 0.0865 -0.1302  0.4758 154 153 153
 0.0858 -0.1302  0.4758 154 153 155
 0.0850 -0.1302  0.4758 154 153 155
 0.0842 -0.1301  0.4757 154 153 155
 0.0834 -0.1301  0.4757 155 154 156
 0.0827 -0.1301  0.4757 154 153 153
 0.0819 -0.1302  0.4758 154 153 153
 0.0811 -0.1302  0.4758 153 152 152
 0.0804 -0.1302  0.4759 154 153 153
 0.0797 -0.1303  0.4762 153 152 152
 0.0789 -0.1303  0.4763 154 153 153
 0.0782 -0.1303  0.4764 154 153 153
 0.0774 -0.1303  0.4764 154 153 153
 0.0766 -0.1303  0.4764 154 153 153
 0.0759 -0.1304  0.4766 154 153 153
 0.0751 -0.1304  0.4766 154 153 153
 0.0743 -0.1304  0.4766 155 154 154
 0.0736 -0.1304  0.4767 154 153 153
 0.0728 -0.1304  0.4767 154 153 153
 0.0721 -0.1304  0.4767 154 153 153
 0.0713 -0.1304  0.4767 154 153 153
 0.0705 -0.1304  0.4767 154 153 153
 0.0698 -0.1304  0.4767 154 153 153
 0.0690 -0.1304  0.4767 153 152 152
 0.0682 -0.1304  0.4766 154 153 153
 0.0674 -0.1304  0.4766 154 153 153
 0.0667 -0.1304  0.4766 154 153 153
 0.0659 -0.1304  0.4767 154 153 153
 0.0651 -0.1304  0.4767 153 152 152
 0.0642 -0.1300  0.4753 154 153 153
 0.0634 -0.1300  0.4753 154 153 153
 0.0626 -0.1300  0.4753 156 152 153
 0.0619 -0.1300  0.4753 156 152 153
 0.0611 -0.1300  0.4752 156 152 153
 0.0603 -0.1300  0.4752 156 152 153
 0.0596 -0.1300  0.4752 155 154 154
 0.0588 -0.1300  0.4752 154 153 153
 0.0580 -0.1299  0.4749 154 153 153
 0.0572 -0.1299  0.4749 154 153 153
 0.0565 -0.1299  0.4749 155 154 154
 0.0557 -0.1298  0.4747 154 153 153
 0.0549 -0.1298  0.4747 154 153 153
 0.0541 -0.1298  0.4747 154 153 153
 0.0534 -0.1298  0.4747 154 154 150
 0.0526 -0.1298  0.4747 154 154 150
 0.0518 -0.1299  0.4748 155 155 151
 0.0511 -0.1299  0.4749 155 155 151
 0.0503 -0.1299  0.4751 155 155 155
 0.0496 -0.1299  0.4751 154 154 154
 0.0488 -0.1299  0.4751 153 153 153
 0.0480 -0.1300  0.4752 153 153 153
 0.0473 -0.1300  0.4752 153 153 153
 0.0465 -0.1300  0.4752 154 154 154
 0.0457 -0.1300  0.4752 154 154 154
 0.0450 -0.1300  0.4753 153 153 153
 0.0442 -0.1300  0.4754 153 153 153
 0.0435 -0.1300  0.4754 153 153 153
 0.0427 -0.1300  0.4754 153 153 153
 0.0419 -0.1301  0.4756 153 153 153
 0.0412 -0.1301  0.4757 154 154 154
 0.0404 -0.1302  0.4758 154 154 154
 0.0397 -0.1302  0.4758 154 154 154
 0.0389 -0.1302  0.4758 154 154 154
 0.0381 -0.1302  0.4758 154 154 154
 0.0374 -0.1302  0.4759 154 154 154
 0.0366 -0.1302  0.4758 154 154 154
 0.0358 -0.1302  0.4758 154 154 154
 0.0350 -0.1301  0.4757 154 154 154
 0.0343 -0.1301  0.4757 154 154 154
 0.0335 -0.1301  0.4757 154 154 154
 0.0327 -0.1301  0.4757 154 154 154
 0.0320 -0.1301  0.4757 155 155 155
 0.0312 -0.1301  0.4757 155 155 155
 0.0304 -0.1301  0.4757 155 155 155
 0.0297 -0.1302  0.4758 154 154 154
 0.0289 -0.1302  0.4759 154 154 154
 0.0282 -0.1303  0.4762 155 155 155
 0.0274 -0.1303  0.4762 155 155 155
 0.0266 -0.1303  0.4763 154 154 154
 0.0259 -0.1303  0.4764 155 155 155
 0.0251 -0.1303  0.4763 154 154 154
 0.0243 -0.1303  0.4763 156 156 152
 0.0235 -0.1303  0.4762 156 156 152
 0.0228 -0.1302  0.4761 156 156 152
 0.0220 -0.1302  0.4759 156 156 152
 0.0212 -0.1302  0.4759 156 156 152
 0.0204 -0.1301  0.4757 155 155 151
 0.0197 -0.1301  0.4756 154 155 151
 0.0189 -0.1300  0.4754 154 155 151
 0.0181 -0.1300  0.4754 154 155 151
 0.0174 -0.1300  0.4754 155 156 152
 0.0166 -0.1300  0.4753 156 156 152
 0.0158 -0.1300  0.4753 158 158 154
 0.0151 -0.1300  0.4753 156 155 155
 0.0143 -0.1300  0.4753 158 157 157
 0.0135 -0.1300  0.4753 158 157 159
 0.0128 -0.1300  0.4753 156 155 157
 0.0120 -0.1300  0.4754 158 157 159
 0.0112 -0.1300  0.4754 158 157 159
 0.0105 -0.1300  0.4754 156 155 157
 0.0097 -0.1300  0.4754 158 157 159
 0.0089 -0.1300  0.4754 158 157 157
 0.0082 -0.1300  0.4754 158 157 157
 0.0074 -0.1300  0.4754 159 158 158
 0.0066 -0.1301  0.4756 159 158 158
 0.0058 -0.1301  0.4756 156 155 155
 0.0051 -0.1301  0.4757 158 157 157
 0.0043 -0.1301  0.4757 157 157 157
 0.0035 -0.1301  0.4757 157 157 157
 0.0028 -0.1302  0.4758 157 157 157
 0.0020 -0.1302  0.4759 157 157 157
 0.0012 -0.1302  0.4759 157 157 157
 0.0005 -0.1302  0.4759 157 157 157
-0.0003 -0.1302  0.4759 159 158 158
-0.0011 -0.1302  0.4761 158 157 157
-0.0018 -0.1302  0.4761 159 158 158
-0.0026 -0.1303  0.4762 159 158 158
-0.0034 -0.1303  0.4763 159 158 158
-0.0041 -0.1303  0.4763 159 158 158
-0.0049 -0.1303  0.4764 159 158 158
-0.0057 -0.1303  0.4763 159 158 158
-0.0064 -0.1303  0.4763 159 158 158
-0.0072 -0.1303  0.4762 159 158 158
-0.0080 -0.1303  0.4762 159 158 158
-0.0088 -0.1302  0.4761 160 159 159
-0.0095 -0.1302  0.4758 160 159 159
-0.0103 -0.1300  0.4753 160 159 159
-0.0110 -0.1300  0.4753 158 158 158
-0.0118 -0.1299  0.4751 158 158 158
-0.0126 -0.1299  0.4749 158 158 160
-0.0133 -0.1299  0.4748 158 158 160
-0.0141 -0.1299  0.4748 159 159 161
-0.0149 -0.1299  0.4748 159 159 161
-0.0156 -0.1299  0.4749 159 159 161
-0.0164 -0.1299  0.4749 159 159 161
-0.0172 -0.1299  0.4749 159 159 161
-0.0179 -0.1299  0.4749 159 159 161
-0.0187 -0.1299  0.4749 160 160 162
-0.0195 -0.1299  0.4748 160 160 162
-0.0202 -0.1299  0.4748 160 160 164
-0.0210 -0.1299  0.4748 160 160 164
-0.0218 -0.1299  0.4748 160 160 164
-0.0225 -0.1299  0.4748 160 160 164
-0.0233 -0.1299  0.4749 160 160 164
-0.0241 -0.1299  0.4751 160 160 164
-0.0248 -0.1299  0.4751 162 161 163
-0.0256 -0.1300  0.4753 162 161 163
-0.0264 -0.1301  0.4757 162 161 163
-0.0272 -0.1302  0.4759 163 162 164
-0.0280 -0.1302  0.4759 162 161 163
-0.0287 -0.1303  0.4762 162 161 163
-0.0295 -0.1303  0.4764 161 161 163
-0.0303 -0.1303  0.4764 161 161 163
-0.0311 -0.1303  0.4764 162 162 164
-0.0318 -0.1303  0.4764 162 162 164
-0.0326 -0.1303  0.4762 162 162 164
-0.0333 -0.1302  0.4759 164 164 166
-0.0341 -0.1302  0.4759 164 164 166
-0.0349 -0.1301  0.4756 164 164 166
-0.0356 -0.1300  0.4754 162 162 164
-0.0364 -0.1300  0.4752 162 162 164
-0.0371 -0.1300  0.4752 160 163 164
-0.0379 -0.1300  0.4752 162 165 166
-0.0387 -0.1300  0.4752 162 165 166
-0.0394 -0.1300  0.4753 163 166 167
-0.0402 -0.1300  0.4753 163 166 167
-0.0410 -0.1300  0.4753 163 166 167
-0.0418 -0.1300  0.4754 163 166 167
-0.0425 -0.1301  0.4756 163 166 167
-0.0433 -0.1301  0.4757 163 166 167
-0.0441 -0.1301  0.4757 164 167 168
-0.0449 -0.1302  0.4759 164 167 168
-0.0457 -0.1302  0.4761 164 167 168
-0.0464 -0.1302  0.4761 164 167 168
-0.0472 -0.1302  0.4761 165 168 169
-0.0479 -0.1302  0.4759 165 168 169
-0.0487 -0.1302  0.4758 165 168 169
-0.0494 -0.1301  0.4756 165 168 169
-0.0502 -0.1301  0.4756 165 168 169
-0.0510 -0.1300  0.4754 166 169 170
-0.0517 -0.1300  0.4752 165 168 169
-0.0524 -0.1299  0.4749 165 168 169
-0.0532 -0.1299  0.4749 166 169 170
-0.0540 -0.1299  0.4748 166 169 170
-0.0547 -0.1298  0.4747 166 169 170
-0.0555 -0.1298  0.4747 166 169 170
-0.0563 -0.1298  0.4747 167 170 171
-0.0570 -0.1298  0.4747 167 170 171
-0.0578 -0.1298  0.4747 167 170 171
-0.0586 -0.1299  0.4748 169 172 173
-0.0593 -0.1299  0.4749 169 172 173
-0.0601 -0.1299  0.4749 169 172 173
-0.0609 -0.1299  0.4749 169 172 173
-0.0617 -0.1299  0.4751 170 173 174
-0.0624 -0.1299  0.4751 170 173 174
-0.0632 -0.1299  0.4751 170 173 174
-0.0640 -0.1300  0.4752 170 173 174
-0.0647 -0.1300  0.4752 171 174 175
-0.0655 -0.1300  0.4752 171 174 175
-0.0663 -0.1300  0.4753 171 174 175
-0.0671 -0.1300  0.4753 172 175 176
-0.0678 -0.1300  0.4753 172 175 178
-0.0686 -0.1300  0.4754 172 175 178
-0.0694 -0.1300  0.4754 173 176 179
-0.0702 -0.1300  0.4754 173 176 179
-0.0709 -0.1300  0.4754 174 177 180
-0.0717 -0.1300  0.4754 174 177 180
-0.0725 -0.1300  0.4754 176 179 180
-0.0732 -0.1300  0.4754 176 179 180
-0.0740 -0.1300  0.4754 177 180 181
-0.0748 -0.1300  0.4754 178 181 182
-0.0755 -0.1300  0.4754 178 181 182
-0.0763 -0.1300  0.4754 178 181 182
-0.0770 -0.1300  0.4752 179 182 183
-0.0778 -0.1299  0.4751 179 182 183
-0.0785 -0.1299  0.4751 179 182 183
-0.0793 -0.1299  0.4749 180 183 184
-0.0800 -0.1298  0.4747 183 186 187
-0.0807 -0.1298  0.4744 181 184 185
-0.0815 -0.1298  0.4744 181 184 185
-0.0822 -0.1297  0.4742 183 186 187
-0.0829 -0.1296  0.4739 184 187 188
-0.0837 -0.1296  0.4737 184 187 188
-0.0844 -0.1296  0.4737 184 187 188
-0.0852 -0.1295  0.4734 183 186 187
-0.0859 -0.1295  0.4733 183 186 187
-0.0867 -0.1295  0.4733 183 186 187
-0.0874 -0.1295  0.4733 181 184 185
-0.0882 -0.1295  0.4733 183 186 187
-0.0890 -0.1295  0.4733 183 186 187
-0.0897 -0.1295  0.4734 183 186 187
-0.0905 -0.1295  0.4734 181 184 185
-0.0912 -0.1295  0.4733 181 184 185
-0.0920 -0.1295  0.4733 181 184 185
-0.0927 -0.1294  0.4732 183 186 187
-0.0935 -0.1294  0.4732 183 186 187
-0.0943 -0.1294  0.4732 183 186 187
-0.0950 -0.1294  0.4731 181 184 185
-0.0958 -0.1294  0.4731 181 184 185
-0.0966 -0.1294  0.4732 181 184 185
-0.0973 -0.1294  0.4732 183 186 187
-0.0981 -0.1294  0.4732 181 184 185
-0.0989 -0.1295  0.4733 183 186 187
-0.0997 -0.1295  0.4733 183 186 187
-0.1004 -0.1295  0.4734 183 186 187
-0.1012 -0.1295  0.4734 183 186 187
-0.1020 -0.1295  0.4734 183 186 187
-0.1027 -0.1295  0.4734 183 186 187
-0.1035 -0.1295  0.4734 183 186 187
-0.1043 -0.1295  0.4734 184 187 188
-0.1050 -0.1295  0.4733 184 187 188
-0.1057 -0.1294  0.4732 184 187 188
-0.1065 -0.1294  0.4732 184 187 188
-0.1072 -0.1294  0.4731 184 187 188
-0.1080 -0.1294  0.4729 184 187 188
-0.1087 -0.1294  0.4729 184 187 188
-0.1095 -0.1294  0.4729 184 187 188
-0.1102 -0.1293  0.4728 184 187 186
-0.1110 -0.1293  0.4727 185 188 187
-0.1117 -0.1293  0.4727 185 188 187
-0.1125 -0.1293  0.4727 185 188 187
-0.1133 -0.1293  0.4727 184 187 186
-0.1140 -0.1293  0.4727 184 187 186
-0.1148 -0.1293  0.4727 184 187 186
-0.1155 -0.1293  0.4727 184 187 186
-0.1163 -0.1293  0.4727 184 187 186
-0.1171 -0.1293  0.4727 184 187 186
-0.1178 -0.1293  0.4727 184 187 186
-0.1189 -0.1297  0.4741 183 186 185
-0.1197 -0.1297  0.4741 183 186 185
-0.1205 -0.1297  0.4742 183 186 185
-0.1213 -0.1297  0.4742 183 186 187
-0.1221 -0.1297  0.4743 183 186 187
-0.1228 -0.1297  0.4743 183 186 187
-0.1236 -0.1297  0.4742 183 186 187
-0.1243 -0.1296  0.4739 181 184 185
-0.1250 -0.1296  0.4739 181 184 185
-0.1257 -0.1296  0.4737 180 183 184
-0.1265 -0.1295  0.4736 180 183 184
-0.1272 -0.1295  0.4736 180 183 184
-0.1280 -0.1295  0.4736 179 182 183
-0.1288 -0.1295  0.4736 179 182 183
-0.1295 -0.1295  0.4736 180 183 184
-0.1303 -0.1295  0.4736 179 182 183
-0.1311 -0.1296  0.4737 179 182 183
-0.1319 -0.1296  0.4737 179 182 183
-0.1326 -0.1296  0.4737 179 182 183
-0.1334 -0.1296  0.4737 179 182 183
-0.1342 -0.1296  0.4737 179 182 183
