ply
format ascii 1.0
element vertex 1328
property float x
property float y
property float z
property uchar red
property uchar green
property uchar blue
end_header
 0.1440 -0.1095  0.5322 153 153 153
 0.1432 -0.1095  0.5322 153 153 153
 0.1424 -0.1095  0.5324 154 153 153
 0.1416 -0.1096  0.5327 153 152 152
 0.1407 -0.1096  0.5327 155 151 152
 0.1400 -0.1097  0.5332 156 152 153
 0.1393 -0.1098  0.5337 153 153 149
 0.1385 -0.1098  0.5339 153 153 149
 0.1376 -0.1098  0.5339 153 153 149
 0.1368 -0.1099  0.5341 154 154 150
 0.1359 -0.1099  0.5341 155 155 151
 0.1351 -0.1099  0.5341 154 154 150
 0.1342 -0.1099  0.5341 154 154 150
 0.1334 -0.1099  0.5342 154 154 150
 0.1325 -0.1099  0.5342 153 153 149
 0.1317 -0.1099  0.5343 154 154 150
 0.1308 -0.1099  0.5343 152 153 149
 0.1300 -0.1099  0.5344 152 153 149
 0.1292 -0.1100  0.5348 150 154 149
 0.1284 -0.1101  0.5351 150 154 149
 0.1275 -0.1101  0.5351 150 154 149
 0.1267 -0.1101  0.5353 151 155 150
 0.1259 -0.1102  0.5356 153 154 150
 0.1251 -0.1102  0.5357 152 153 149
 0.1242 -0.1102  0.5357 152 153 149
 0.1234 -0.1102  0.5357 152 153 149
 0.1225 -0.1102  0.5357 152 153 149
 0.1216 -0.1102  0.5357 152 153 149
 0.1201 -0.1096  0.5328 152 153 147
 0.1192 -0.1096  0.5327 152 153 147
 0.1184 -0.1096  0.5327 152 153 147
 0.1175 -0.1096  0.5327 152 153 147
 0.1166 -0.1096  0.5326 153 154 148
 0.1158 -0.1096  0.5326 153 154 148
 0.1149 -0.1096  0.5326 153 154 150
 0.1140 -0.1096  0.5326 153 154 150
 0.1132 -0.1096  0.5326 153 154 150
 0.1123 -0.1095  0.5324 152 153 149
 0.1114 -0.1095  0.5324 153 154 150
 0.1106 -0.1095  0.5323 152 153 149
 0.1097 -0.1095  0.5322 151 152 148
 0.1088 -0.1095  0.5321 152 153 149
 0.1079 -0.1095  0.5321 153 153 149
 0.1070 -0.1094  0.5319 153 153 149
 0.1061 -0.1094  0.5317 155 155 151
 0.1053 -0.1094  0.5317 154 154 150
 0.1044 -0.1094  0.5317 154 154 150
 0.1036 -0.1094  0.5317 153 153 149
 0.1027 -0.1094  0.5317 153 153 149
 0.1018 -0.1094  0.5317 153 153 149
 0.1010 -0.1094  0.5317 152 152 152
 0.1001 -0.1094  0.5317 152 152 152
 0.0993 -0.1094  0.5318 151 151 151
 0.0984 -0.1094  0.5319 152 152 152
 0.0976 -0.1095  0.5321 152 153 149
 0.0968 -0.1095  0.5321 152 153 149
 0.0959 -0.1095  0.5322 151 152 148
 0.0951 -0.1095  0.5322 151 152 148
 0.0942 -0.1095  0.5322 152 152 148
 0.0934 -0.1095  0.5323 154 154 150
 0.0925 -0.1095  0.5323 153 153 147
 0.0916 -0.1095  0.5323 152 152 146
 0.0908 -0.1095  0.5323 153 153 147
 0.0899 -0.1095  0.5323 153 153 147
 0.0891 -0.1095  0.5323 153 153 149
 0.0882 -0.1095  0.5323 153 153 149
 0.0873 -0.1095  0.5322 153 153 149
 0.0865 -0.1095  0.5322 153 153 149
 0.0856 -0.1095  0.5321 153 153 149
 0.0847 -0.1094  0.5319 153 153 149
 0.0838 -0.1094  0.5318 153 153 149
 0.0830 -0.1094  0.5318 153 153 149
 0.0821 -0.1094  0.5317 153 153 149
 0.0812 -0.1094  0.5317 153 153 149
 0.0804 -0.1094  0.5317 153 153 149
 0.0795 -0.1094  0.5317 153 153 149
 0.0787 -0.1094  0.5317 153 153 149
 0.0778 -0.1094  0.5317 153 153 149
 0.0769 -0.1093  0.5316 155 152 149
 0.0761 -0.1093  0.5316 155 152 149
 0.0752 -0.1093  0.5316 155 152 149
 0.0743 -0.1093  0.5316 154 151 148
 0.0735 -0.1093  0.5316 156 153 150
 0.0726 -0.1094  0.5317 155 152 149
 0.0718 -0.1094  0.5317 155 152 149
 0.0709 -0.1094  0.5317 155 152 149
 0.0701 -0.1094  0.5317 155 152 149
 0.0692 -0.1094  0.5317 155 152 149
 0.0684 -0.1094  0.5317 155 151 152
 0.0675 -0.1094  0.5318 156 152 153
 0.0667 -0.1094  0.5318 156 152 153
 0.0658 -0.1094  0.5319 156 152 153
 0.0650 -0.1094  0.5319 156 152 153
 0.0641 -0.1094  0.5319 157 153 154
 0.0632 -0.1095  0.5321 155 151 152
 0.0624 -0.1095  0.5322 157 153 154
 0.0616 -0.1095  0.5323 157 153 154
 0.0607 -0.1095  0.5323 156 152 153
 0.0599 -0.1095  0.5324 154 153 153
 0.0590 -0.1095  0.5324 155 154 154
 0.0581 -0.1095  0.5324 154 153 153
 0.0573 -0.1095  0.5324 155 154 154
 0.0564 -0.1095  0.5323 157 153 154
 0.0555 -0.1095  0.5323 156 152 153
 0.0547 -0.1095  0.5323 156 153 150
 0.0538 -0.1095  0.5323 156 153 150
 0.0530 -0.1095  0.5323 156 153 150
 0.0521 -0.1095  0.5324 157 154 151
 0.0513 -0.1095  0.5324 157 154 151
 0.0504 -0.1095  0.5324 157 154 151
 0.0496 -0.1096  0.5327 157 154 151
 0.0487 -0.1096  0.5329 157 154 151
 0.0479 -0.1097  0.5332 157 154 151
 0.0470 -0.1097  0.5333 157 154 151
 0.0462 -0.1097  0.5333 157 154 151
 0.0453 -0.1097  0.5334 156 153 150
 0.0445 -0.1097  0.5334 157 154 151
 0.0436 -0.1097  0.5334 157 154 151
 0.0427 -0.1097  0.5334 157 153 154
 0.0419 -0.1098  0.5336 157 153 154
 0.0410 -0.1098  0.5336 157 153 154
 0.0402 -0.1098  0.5337 157 153 154
 0.0393 -0.1098  0.5337 157 153 154
 0.0384 -0.1098  0.5337 157 153 154
 0.0376 -0.1098  0.5338 155 154 154
 0.0367 -0.1098  0.5338 155 154 154
 0.0359 -0.1098  0.5337 155 154 154
 0.0350 -0.1098  0.5337 155 154 154
 0.0341 -0.1098  0.5336 155 154 154
 0.0333 -0.1098  0.5336 156 155 155
 0.0324 -0.1098  0.5336 155 154 154
 0.0315 -0.1097  0.5334 156 155 155
 0.0307 -0.1097  0.5334 156 155 155
 0.0297 -0.1093  0.5314 155 154 154
 0.0288 -0.1093  0.5314 158 154 155
 0.0280 -0.1093  0.5314 158 154 155
 0.0271 -0.1093  0.5316 158 154 155
 0.0263 -0.1094  0.5317 158 154 155
 0.0254 -0.1094  0.5317 158 154 155
 0.0246 -0.1094  0.5317 158 154 155
 0.0237 -0.1094  0.5318 156 155 155
 0.0229 -0.1094  0.5319 156 155 155
 0.0220 -0.1094  0.5319 155 154 154
 0.0211 -0.1094  0.5319 156 155 155
 0.0203 -0.1094  0.5318 156 155 155
 0.0194 -0.1094  0.5317 156 155 155
 0.0186 -0.1094  0.5317 158 157 157
 0.0177 -0.1093  0.5314 158 157 157
 0.0168 -0.1093  0.5313 158 157 157
 0.0160 -0.1093  0.5312 156 155 155
 0.0151 -0.1092  0.5311 158 157 157
 0.0142 -0.1092  0.5311 156 155 155
 0.0134 -0.1092  0.5309 158 157 157
 0.0125 -0.1092  0.5307 158 157 157
 0.0117 -0.1091  0.5304 158 157 157
 0.0108 -0.1091  0.5304 158 157 157
 0.0099 -0.1091  0.5304 158 157 157
 0.0091 -0.1091  0.5304 159 158 158
 0.0082 -0.1091  0.5304 158 157 157
 0.0074 -0.1092  0.5307 158 157 157
 0.0065 -0.1092  0.5307 158 157 157
 0.0057 -0.1092  0.5307 158 157 157
 0.0048 -0.1092  0.5309 159 158 158
 0.0040 -0.1092  0.5309 158 157 157
 0.0031 -0.1092  0.5309 159 158 158
 0.0022 -0.1092  0.5311 159 158 158
 0.0014 -0.1092  0.5311 159 158 158
 0.0005 -0.1093  0.5312 159 158 158
-0.0003 -0.1093  0.5312 159 158 158
-0.0012 -0.1093  0.5312 159 158 158
-0.0020 -0.1093  0.5313 159 158 158
-0.0029 -0.1093  0.5316 159 158 158
-0.0038 -0.1093  0.5316 159 158 158
-0.0046 -0.1093  0.5316 159 158 158
-0.0055 -0.1094  0.5317 159 158 158
-0.0063 -0.1094  0.5317 159 158 158
-0.0072 -0.1094  0.5318 160 159 159
-0.0081 -0.1094  0.5318 160 159 159
-0.0089 -0.1094  0.5319 159 158 158
-0.0098 -0.1095  0.5322 161 160 160
-0.0106 -0.1095  0.5322 159 159 159
-0.0115 -0.1095  0.5322 159 159 159
-0.0124 -0.1095  0.5322 159 159 159
-0.0132 -0.1095  0.5321 159 159 159
-0.0141 -0.1094  0.5319 160 160 160
-0.0149 -0.1094  0.5319 160 160 160
-0.0158 -0.1093  0.5316 159 159 159
-0.0166 -0.1093  0.5313 160 160 160
-0.0175 -0.1093  0.5312 161 161 161
-0.0183 -0.1093  0.5312 160 160 160
-0.0192 -0.1092  0.5309 161 160 160
-0.0200 -0.1092  0.5309 160 159 159
-0.0209 -0.1092  0.5309 161 160 160
-0.0218 -0.1092  0.5309 161 160 160
-0.0226 -0.1092  0.5309 161 160 160
-0.0235 -0.1092  0.5309 162 161 161
-0.0243 -0.1092  0.5309 162 161 161
-0.0252 -0.1092  0.5309 162 161 161
-0.0260 -0.1092  0.5309 162 161 161
-0.0269 -0.1092  0.5309 162 161 161
-0.0278 -0.1092  0.5309 163 162 162
-0.0286 -0.1092  0.5309 163 162 162
-0.0295 -0.1092  0.5311 163 162 162
-0.0303 -0.1092  0.5311 163 162 162
-0.0312 -0.1093  0.5313 163 162 162
-0.0321 -0.1093  0.5316 163 162 162
-0.0330 -0.1094  0.5317 163 162 162
-0.0338 -0.1094  0.5317 163 162 162
-0.0347 -0.1094  0.5317 165 164 164
-0.0355 -0.1093  0.5316 165 164 164
-0.0364 -0.1093  0.5314 165 164 164
-0.0372 -0.1093  0.5314 165 164 164
-0.0381 -0.1093  0.5313 165 164 164
-0.0389 -0.1093  0.5312 166 165 165
-0.0398 -0.1093  0.5312 166 165 165
-0.0406 -0.1093  0.5312 165 164 164
-0.0415 -0.1093  0.5312 166 165 167
-0.0424 -0.1093  0.5313 167 166 168
-0.0432 -0.1093  0.5314 167 166 168
-0.0441 -0.1093  0.5316 167 166 168
-0.0450 -0.1093  0.5316 167 166 168
-0.0458 -0.1094  0.5318 167 166 168
-0.0467 -0.1094  0.5318 168 167 169
-0.0475 -0.1094  0.5317 167 166 168
-0.0484 -0.1094  0.5317 167 166 168
-0.0492 -0.1093  0.5314 168 167 169
-0.0501 -0.1093  0.5312 168 167 167
-0.0509 -0.1092  0.5309 167 166 166
-0.0518 -0.1092  0.5309 168 167 167
-0.0526 -0.1092  0.5308 168 167 167
-0.0535 -0.1092  0.5307 169 168 168
-0.0543 -0.1091  0.5306 169 168 168
-0.0552 -0.1091  0.5306 170 169 169
-0.0560 -0.1091  0.5304 170 169 169
-0.0569 -0.1091  0.5304 170 169 171
-0.0577 -0.1091  0.5304 170 169 171
-0.0586 -0.1091  0.5304 170 169 171
-0.0594 -0.1091  0.5304 172 171 173
-0.0603 -0.1091  0.5304 173 172 174
-0.0611 -0.1091  0.5304 173 172 174
-0.0620 -0.1091  0.5304 173 172 174
-0.0629 -0.1091  0.5304 173 172 174
-0.0637 -0.1091  0.5302 173 172 174
-0.0645 -0.1091  0.5302 174 173 175
-0.0654 -0.1091  0.5302 175 174 176
-0.0663 -0.1091  0.5302 175 174 176
-0.0671 -0.1090  0.5301 175 174 176
-0.0679 -0.1090  0.5301 175 174 176
-0.0688 -0.1091  0.5302 176 175 177
-0.0697 -0.1091  0.5302 177 176 178
-0.0705 -0.1090  0.5301 177 176 178
-0.0714 -0.1090  0.5299 177 176 178
-0.0722 -0.1090  0.5299 179 178 180
-0.0731 -0.1090  0.5299 179 178 180
-0.0739 -0.1090  0.5298 178 178 180
-0.0748 -0.1090  0.5298 179 179 181
-0.0756 -0.1090  0.5298 179 179 181
-0.0765 -0.1090  0.5298 180 180 182
-0.0773 -0.1090  0.5297 180 180 182
-0.0782 -0.1090  0.5297 180 180 182
-0.0790 -0.1089  0.5294 181 181 183
-0.0798 -0.1089  0.5294 181 181 183
-0.0807 -0.1089  0.5294 182 182 184
-0.0816 -0.1089  0.5296 182 182 184
-0.0824 -0.1089  0.5296 183 183 185
-0.0833 -0.1089  0.5296 185 185 187
-0.0841 -0.1090  0.5297 185 185 187
-0.0850 -0.1090  0.5297 185 185 187
-0.0859 -0.1090  0.5297 182 182 184
-0.0867 -0.1090  0.5298 183 183 185
-0.0876 -0.1090  0.5299 183 183 185
-0.0884 -0.1090  0.5298 183 183 185
-0.0893 -0.1090  0.5298 182 182 184
-0.0905 -0.1094  0.5317 183 183 185
-0.0913 -0.1093  0.5316 182 182 184
-0.0922 -0.1093  0.5316 182 182 184
-0.0930 -0.1093  0.5316 182 182 184
-0.0939 -0.1093  0.5316 183 183 185
-0.0948 -0.1094  0.5317 183 183 185
-0.0956 -0.1094  0.5317 185 185 187
-0.0965 -0.1094  0.5317 185 185 187
-0.0974 -0.1094  0.5318 185 185 187
-0.0982 -0.1094  0.5317 183 183 185
-0.0991 -0.1094  0.5317 183 183 185
-0.0999 -0.1093  0.5314 183 183 185
-0.1007 -0.1093  0.5312 183 183 185
-0.1015 -0.1092  0.5311 183 183 185
-0.1024 -0.1092  0.5311 183 183 185
-0.1032 -0.1092  0.5309 183 183 185
-0.1040 -0.1092  0.5308 183 183 185
-0.1049 -0.1092  0.5308 180 183 184
-0.1058 -0.1092  0.5308 180 183 184
-0.1066 -0.1092  0.5308 181 184 185
-0.1074 -0.1092  0.5307 179 182 183
-0.1083 -0.1092  0.5307 183 186 187
-0.1092 -0.1092  0.5307 181 184 185
-0.1100 -0.1091  0.5306 181 184 185
-0.1108 -0.1091  0.5306 183 186 187
-0.1117 -0.1091  0.5306 181 184 185
-0.1126 -0.1092  0.5307 180 183 184
-0.1134 -0.1092  0.5307 181 184 185
-0.1144 -0.1092  0.5309 181 184 185
-0.1153 -0.1093  0.5312 181 184 185
-0.1162 -0.1093  0.5314 183 186 187
-0.1170 -0.1093  0.5314 184 187 188
-0.1179 -0.1093  0.5314 185 188 189
-0.1187 -0.1093  0.5312 184 187 188
-0.1196 -0.1093  0.5312 184 187 188
-0.1203 -0.1092  0.5308 185 188 189
-0.1211 -0.1091  0.5304 185 188 189
-0.1219 -0.1090  0.5301 184 187 188
-0.1227 -0.1090  0.5301 183 186 187
-0.1235 -0.1090  0.5298 183 186 187
-0.1243 -0.1090  0.5297 184 187 188
-0.1252 -0.1090  0.5297 184 187 188
-0.1261 -0.1090  0.5297 184 187 188
-0.1269 -0.1090  0.5297 184 187 188
-0.1278 -0.1090  0.5297 185 188 189
-0.1286 -0.1089  0.5296 185 188 189
-0.1295 -0.1089  0.5296 186 189 190
-0.1303 -0.1089  0.5294 182 188 188
-0.1311 -0.1089  0.5292 183 189 189
-0.1319 -0.1088  0.5291 182 188 188
-0.1327 -0.1088  0.5291 182 188 188
-0.1336 -0.1088  0.5291 184 187 188
-0.1345 -0.1088  0.5291 183 186 187
-0.1353 -0.1089  0.5292 180 183 184
-0.1362 -0.1089  0.5292 180 183 184
-0.1370 -0.1089  0.5292 178 181 182
-0.1379 -0.1089  0.5293 178 181 182
-0.1388 -0.1089  0.5294 178 181 182
-0.1397 -0.1089  0.5294 177 180 181
-0.1405 -0.1089  0.5293 177 180 181
-0.1413 -0.1089  0.5292 177 180 181
-0.1421 -0.1088  0.5289 177 180 181
-0.1430 -0.1088  0.5289 177 180 181
-0.1438 -0.1088  0.5288 176 179 180
-0.1446 -0.1088  0.5288 177 180 181
-0.1455 -0.1088  0.5288 178 181 182
-0.1463 -0.1088  0.5288 176 179 180
-0.1472 -0.1088  0.5288 176 179 180
-0.1481 -0.1088  0.5288 174 177 178
-0.1489 -0.1088  0.5289 174 177 178
-0.1498 -0.1088  0.5289 174 177 178
-0.1507 -0.1088  0.5289 174 177 178
-0.1515 -0.1088  0.5291 173 176 177
-0.1524 -0.1088  0.5291 175 175 177
-0.1533 -0.1089  0.5292 175 175 177
-0.1541 -0.1088  0.5291 175 175 177
-0.1550 -0.1088  0.5291 174 174 176
-0.1558 -0.1088  0.5291 175 175 177
-0.1567 -0.1088  0.5291 175 175 177
-0.1575 -0.1088  0.5291 174 174 176
-0.1584 -0.1088  0.5291 175 175 177
-0.1592 -0.1088  0.5289 174 174 176
-0.1600 -0.1088  0.5289 174 174 176
-0.1609 -0.1088  0.5289 172 175 176
-0.1618 -0.1088  0.5289 172 175 176
-0.1626 -0.1088  0.5289 171 174 175
-0.1635 -0.1088  0.5289 172 175 176
-0.1643 -0.1088  0.5289 171 174 175
-0.1652 -0.1088  0.5289 171 174 175
-0.1660 -0.1088  0.5289 171 174 177
-0.1669 -0.1088  0.5291 171 174 177
-0.1678 -0.1088  0.5291 171 174 177
-0.1687 -0.1089  0.5292 171 174 177
-0.1696 -0.1089  0.5294 171 174 177
-0.1706 -0.1090  0.5298 171 174 177
-0.1714 -0.1090  0.5298 171 174 175
-0.1724 -0.1090  0.5301 171 174 175
-0.1733 -0.1091  0.5304 171 174 175
-0.1742 -0.1091  0.5304 170 173 174
-0.1751 -0.1091  0.5304 171 174 173
-0.1758 -0.1091  0.5302 170 173 172
-0.1766 -0.1090  0.5299 172 172 172
-0.1775 -0.1090  0.5299 172 172 172
-0.1782 -0.1089  0.5294 172 172 172
-0.1788 -0.1088  0.5289 172 172 172
-0.1797 -0.1088  0.5289 171 171 171
-0.1805 -0.1088  0.5287 171 171 171
-0.1813 -0.1088  0.5287 171 171 171
-0.1826 -0.1090  0.5301 171 171 171
-0.1835 -0.1090  0.5301 171 171 171
-0.1843 -0.1090  0.5298 171 171 171
-0.1850 -0.1089  0.5296 171 171 171
-0.1858 -0.1089  0.5294 171 171 171
-0.1867 -0.1089  0.5294 171 171 171
-0.1876 -0.1089  0.5294 171 171 171
-0.1884 -0.1089  0.5294 171 171 171
-0.1893 -0.1089  0.5296 171 171 171
-0.1902 -0.1090  0.5297 171 171 171
-0.1911 -0.1090  0.5297 169 169 169
-0.1920 -0.1090  0.5299 171 171 171
-0.1930 -0.1091  0.5302 171 171 171
-0.1938 -0.1091  0.5302 171 171 171
-0.1947 -0.1091  0.5303 169 169 169
-0.1956 -0.1091  0.5304 169 169 169
-0.1965 -0.1091  0.5304 169 169 169
-0.1973 -0.1091  0.5303 169 169 169
-0.1981 -0.1091  0.5302 169 169 169
-0.1989 -0.1090  0.5299 169 169 169
-0.1997 -0.1090  0.5299 169 169 169
-0.2005 -0.1090  0.5297 169 169 169
-0.2012 -0.1089  0.5294 169 169 169
-0.2021 -0.1089  0.5294 168 168 168
-0.2028 -0.1089  0.5292 168 168 168
-0.2036 -0.1088  0.5289 169 169 169
-0.2044 -0.1088  0.5287 169 169 169
-0.2052 -0.1088  0.5287 169 169 169
-0.2060 -0.1087  0.5284 168 168 168
-0.2067 -0.1087  0.5282 168 168 168
-0.2074 -0.1086  0.5278 168 168 168
-0.2083 -0.1086  0.5278 167 167 167
-0.2090 -0.1085  0.5276 168 168 168
-0.2098 -0.1085  0.5274 168 168 168
-0.2107 -0.1085  0.5274 168 168 168
-0.2115 -0.1085  0.5274 168 168 168
-0.2124 -0.1085  0.5276 169 169 169
-0.2133 -0.1086  0.5277 168 168 168
-0.2143 -0.1086  0.5278 168 168 168
-0.2151 -0.1086  0.5278 169 169 169
-0.2160 -0.1086  0.5279 168 168 168
-0.2169 -0.1086  0.5279 167 167 167
-0.2176 -0.1086  0.5277 167 167 167
-0.2184 -0.1085  0.5276 167 167 167
-0.2192 -0.1085  0.5274 168 168 168
-0.2201 -0.1085  0.5274 168 168 168
-0.2209 -0.1085  0.5273 168 168 168
-0.2217 -0.1084  0.5272 167 167 167
-0.2225 -0.1084  0.5272 167 167 167
-0.2234 -0.1084  0.5272 167 167 167
-0.2243 -0.1085  0.5273 169 169 169
-0.2252 -0.1085  0.5274 168 168 168
-0.2261 -0.1086  0.5277 168 168 168
-0.2270 -0.1086  0.5277 168 168 168
-0.2279 -0.1086  0.5278 168 168 168
-0.2288 -0.1086  0.5279 168 168 168
-0.2296 -0.1086  0.5279 167 167 167
-0.2304 -0.1086  0.5278 165 168 167
-0.2312 -0.1086  0.5277 165 168 167
-0.2321 -0.1086  0.5277 165 168 167
-0.2328 -0.1085  0.5274 165 168 167
-0.2337 -0.1085  0.5274 165 168 167
-0.2352 -0.1088  0.5288 164 167 166
-0.2360 -0.1088  0.5288 164 167 168
-0.2368 -0.1088  0.5287 165 168 169
-0.2375 -0.1087  0.5284 164 167 166
-0.2384 -0.1087  0.5284 165 168 167
-0.2392 -0.1087  0.5283 165 168 167
-0.2400 -0.1087  0.5282 165 168 167
-0.2408 -0.1087  0.5282 165 168 167
-0.2416 -0.1086  0.5279 164 167 166
-0.2424 -0.1086  0.5278 166 166 166
-0.2432 -0.1086  0.5277 166 166 166
-0.2440 -0.1086  0.5277 167 167 167
-0.2449 -0.1086  0.5277 167 167 167
-0.2457 -0.1086  0.5277 168 168 168
-0.2466 -0.1086  0.5277 167 167 167
-0.2474 -0.1086  0.5277 167 167 167
-0.2483 -0.1086  0.5278 167 167 167
-0.2493 -0.1086  0.5281 168 168 168
-0.2503 -0.1087  0.5284 167 167 167
-0.2512 -0.1087  0.5284 167 167 167
-0.2523 -0.1088  0.5289 167 167 167
-0.2535 -0.1090  0.5297 168 168 168
-0.2544 -0.1090  0.5297 168 168 168
-0.2556 -0.1091  0.5306 168 168 168
-0.2569 -0.1093  0.5313 168 168 168
-0.2578 -0.1093  0.5316 166 169 168
-0.2587 -0.1093  0.5316 165 168 167
-0.2596 -0.1094  0.5317 164 167 166
-0.2605 -0.1094  0.5317 166 169 168
-0.2612 -0.1093  0.5314 168 168 168
-0.2619 -0.1092  0.5311 168 168 168
-0.2627 -0.1092  0.5311 168 168 168
-0.2633 -0.1091  0.5304 168 168 168
-0.2639 -0.1090  0.5299 168 168 168
-0.2646 -0.1090  0.5297 167 167 167
-0.2655 -0.1090  0.5297 168 168 168
-0.2661 -0.1089  0.5293 168 168 168
-0.2668 -0.1088  0.5289 168 168 168
-0.2677 -0.1088  0.5289 168 168 168
-0.2685 -0.1088  0.5289 168 168 168
-0.2695 -0.1089  0.5292 168 168 168
-0.2704 -0.1089  0.5293 168 168 168
-0.2713 -0.1089  0.5293 167 167 167
 0.2259 -0.1117  0.5389 163 166 169
 0.2240 -0.1112  0.5364 164 167 170
 0.2232 -0.1112  0.5364 163 166 167
 0.2220 -0.1111  0.5357 163 166 167
 0.2206 -0.1108  0.5346 163 166 167
 0.2198 -0.1108  0.5346 164 167 168
 0.2185 -0.1106  0.5334 164 167 168
 0.2174 -0.1105  0.5331 163 166 167
 0.2166 -0.1105  0.5331 162 165 166
 0.2156 -0.1105  0.5328 162 165 166
 0.2147 -0.1104  0.5327 163 166 167
 0.2138 -0.1104  0.5327 163 166 167
 0.2130 -0.1104  0.5327 164 167 168
 0.2120 -0.1104  0.5324 163 166 167
 0.2111 -0.1103  0.5322 163 166 167
 0.2102 -0.1103  0.5322 163 166 167
 0.2092 -0.1102  0.5317 162 165 166
 0.2082 -0.1102  0.5314 162 165 166
 0.2073 -0.1102  0.5314 163 166 167
 0.2065 -0.1102  0.5314 162 165 166
 0.2056 -0.1102  0.5314 162 165 166
 0.2039 -0.1097  0.5293 162 165 166
 0.2031 -0.1097  0.5293 163 166 167
 0.2022 -0.1097  0.5293 162 165 166
 0.2014 -0.1098  0.5294 160 163 164
 0.2007 -0.1098  0.5297 162 165 166
 0.1998 -0.1098  0.5297 160 163 164
 0.1991 -0.1099  0.5299 160 163 164
 0.1983 -0.1099  0.5303 162 162 164
 0.1975 -0.1099  0.5303 162 162 164
 0.1966 -0.1099  0.5303 162 162 164
 0.1956 -0.1098  0.5298 162 162 164
 0.1947 -0.1098  0.5298 162 162 166
 0.1936 -0.1097  0.5292 161 161 165
 0.1928 -0.1097  0.5292 159 162 165
 0.1919 -0.1097  0.5291 159 162 165
 0.1910 -0.1097  0.5291 158 161 162
 0.1902 -0.1097  0.5291 157 160 161
 0.1894 -0.1097  0.5292 157 160 159
 0.1886 -0.1098  0.5294 155 158 157
 0.1878 -0.1098  0.5294 157 157 157
 0.1869 -0.1098  0.5296 155 155 155
 0.1862 -0.1098  0.5298 155 155 159
 0.1854 -0.1099  0.5299 155 155 159
 0.1845 -0.1099  0.5299 154 154 156
 0.1838 -0.1099  0.5303 153 153 155
 0.1830 -0.1100  0.5306 154 154 156
 0.1822 -0.1100  0.5307 153 153 155
 0.1813 -0.1100  0.5307 155 154 156
 0.1804 -0.1100  0.5306 155 154 156
 0.1796 -0.1100  0.5306 153 153 155
 0.1786 -0.1099  0.5303 154 154 156
 0.1777 -0.1099  0.5301 153 153 155
 0.1768 -0.1099  0.5299 153 153 155
 0.1759 -0.1099  0.5299 152 152 152
 0.1751 -0.1099  0.5299 154 154 154
 0.1742 -0.1099  0.5299 154 154 154
 0.1734 -0.1099  0.5299 153 153 153
 0.1725 -0.1099  0.5299 153 153 153
 0.1717 -0.1099  0.5301 153 153 153
 0.1709 -0.1099  0.5302 154 154 154
 0.1701 -0.1100  0.5304 153 153 153
 0.1693 -0.1100  0.5304 154 154 154
 0.1685 -0.1100  0.5307 153 153 153
 0.1677 -0.1101  0.5311 154 154 154
 0.1669 -0.1101  0.5312 153 153 153
 0.1661 -0.1101  0.5312 154 154 154
 0.1653 -0.1102  0.5314 154 154 154
 0.1644 -0.1102  0.5314 154 153 153
 0.1635 -0.1101  0.5312 153 152 152
 0.1626 -0.1101  0.5309 153 153 153
 0.1613 -0.1098  0.5297 154 154 154
 0.1605 -0.1098  0.5297 153 153 153
 0.1595 -0.1098  0.5294 154 154 154
 0.1587 -0.1098  0.5294 154 154 154
 0.1578 -0.1098  0.5294 153 153 153
 0.1570 -0.1098  0.5294 153 153 153
 0.1561 -0.1098  0.5294 153 153 153
 0.1553 -0.1098  0.5296 155 154 154
 0.1545 -0.1098  0.5297 154 153 153
 0.1537 -0.1099  0.5299 154 153 153
 0.1528 -0.1099  0.5299 154 153 153
 0.1520 -0.1099  0.5301 153 153 153
 0.1512 -0.1099  0.5302 154 154 154
 0.1503 -0.1099  0.5302 153 153 153
 0.1496 -0.1100  0.5304 153 153 153
 0.1487 -0.1100  0.5304 153 153 153
 0.1479 -0.1100  0.5306 154 154 154
 0.1470 -0.1100  0.5304 153 153 153
 0.1461 -0.1099  0.5303 152 152 152
 0.1452 -0.1099  0.5303 153 153 153
 0.1444 -0.1099  0.5303 154 154 154
 0.1435 -0.1099  0.5302 154 154 154
 0.1426 -0.1099  0.5302 153 153 153
 0.1419 -0.1100  0.5304 154 153 153
 0.1411 -0.1100  0.5307 154 153 153
 0.1402 -0.1100  0.5307 153 152 152
 0.1394 -0.1101  0.5311 154 153 153
 0.1387 -0.1102  0.5314 153 152 152
 0.1379 -0.1102  0.5317 153 152 152
 0.1370 -0.1102  0.5317 154 154 150
 0.1362 -0.1102  0.5317 154 154 150
 0.1353 -0.1102  0.5314 155 155 151
 0.1344 -0.1102  0.5314 155 155 151
 0.1335 -0.1102  0.5313 155 155 151
 0.1326 -0.1101  0.5312 155 155 151
 0.1318 -0.1101  0.5312 154 154 150
 0.1309 -0.1102  0.5313 155 155 151
 0.1301 -0.1102  0.5313 153 154 150
 0.1292 -0.1102  0.5314 153 154 150
 0.1285 -0.1103  0.5321 151 155 150
 0.1278 -0.1104  0.5326 150 154 149
 0.1269 -0.1104  0.5326 150 154 149
 0.1261 -0.1104  0.5327 151 155 150
 0.1253 -0.1105  0.5329 153 154 150
 0.1245 -0.1105  0.5329 153 154 150
 0.1236 -0.1105  0.5329 153 154 150
 0.1227 -0.1105  0.5329 153 154 150
 0.1219 -0.1105  0.5329 153 154 150
 0.1210 -0.1105  0.5329 152 153 149
 0.1201 -0.1105  0.5328 152 153 147
 0.1192 -0.1104  0.5327 152 153 147
 0.1184 -0.1104  0.5327 152 153 147
 0.1175 -0.1104  0.5327 152 153 147
 0.1166 -0.1104  0.5326 153 154 150
 0.1158 -0.1104  0.5326 154 155 151
 0.1149 -0.1104  0.5326 155 155 151
 0.1140 -0.1104  0.5326 155 155 151
 0.1132 -0.1104  0.5326 154 155 151
 0.1123 -0.1104  0.5324 152 153 149
 0.1114 -0.1104  0.5324 152 153 149
 0.1106 -0.1104  0.5323 152 153 149
 0.1097 -0.1103  0.5322 152 153 149
 0.1088 -0.1103  0.5321 153 154 150
 0.1079 -0.1103  0.5321 153 154 150
 0.1070 -0.1103  0.5319 152 153 149
 0.1061 -0.1102  0.5317 154 154 150
 0.1053 -0.1102  0.5317 154 154 150
 0.1044 -0.1102  0.5317 155 155 151
 0.1033 -0.1099  0.5302 153 153 149
 0.1024 -0.1099  0.5302 153 153 149
 0.1015 -0.1099  0.5302 153 153 149
 0.1007 -0.1099  0.5302 153 153 149
 0.0998 -0.1099  0.5302 153 153 149
 0.0990 -0.1099  0.5302 153 153 149
 0.0981 -0.1099  0.5302 153 153 149
 0.0973 -0.1099  0.5302 153 153 149
 0.0964 -0.1099  0.5302 153 153 149
 0.0956 -0.1099  0.5302 152 152 148
 0.0947 -0.1099  0.5303 152 152 148
 0.0939 -0.1100  0.5304 152 152 148
 0.0930 -0.1100  0.5304 153 153 149
 0.0922 -0.1100  0.5304 153 153 147
 0.0913 -0.1100  0.5304 153 153 147
 0.0905 -0.1100  0.5304 153 153 147
 0.0896 -0.1100  0.5304 153 153 147
 0.0887 -0.1100  0.5304 153 153 149
 0.0879 -0.1099  0.5303 153 153 149
 0.0870 -0.1099  0.5303 153 153 149
 0.0861 -0.1099  0.5302 154 154 150
 0.0852 -0.1099  0.5299 153 153 149
 0.0844 -0.1099  0.5299 153 153 149
 0.0835 -0.1099  0.5299 153 153 149
 0.0827 -0.1098  0.5298 153 153 149
 0.0818 -0.1098  0.5297 153 153 149
 0.0809 -0.1098  0.5297 153 153 149
 0.0801 -0.1098  0.5297 154 154 150
 0.0792 -0.1098  0.5297 153 153 149
 0.0784 -0.1098  0.5297 153 153 149
 0.0775 -0.1098  0.5297 153 153 149
 0.0766 -0.1098  0.5296 156 153 150
 0.0758 -0.1098  0.5296 155 152 149
 0.0749 -0.1098  0.5296 156 153 150
 0.0741 -0.1098  0.5296 155 152 149
 0.0732 -0.1098  0.5296 156 153 150
 0.0724 -0.1098  0.5297 156 153 150
 0.0715 -0.1098  0.5297 155 152 149
 0.0707 -0.1098  0.5297 155 152 149
 0.0698 -0.1098  0.5297 156 153 150
 0.0690 -0.1098  0.5297 156 153 150
 0.0681 -0.1098  0.5297 155 152 149
 0.0673 -0.1098  0.5298 157 154 151
 0.0664 -0.1099  0.5299 156 153 150
 0.0656 -0.1099  0.5299 156 153 150
 0.0647 -0.1099  0.5299 156 153 150
 0.0639 -0.1099  0.5299 157 154 151
 0.0630 -0.1099  0.5299 156 152 153
 0.0622 -0.1099  0.5301 157 153 154
 0.0613 -0.1099  0.5301 157 153 154
 0.0605 -0.1099  0.5302 156 152 153
 0.0596 -0.1099  0.5302 155 154 154
 0.0587 -0.1099  0.5302 155 154 154
 0.0579 -0.1099  0.5302 155 154 154
 0.0570 -0.1099  0.5302 155 154 154
 0.0562 -0.1099  0.5302 155 154 154
 0.0553 -0.1099  0.5303 155 154 154
 0.0545 -0.1099  0.5303 155 154 154
 0.0536 -0.1099  0.5303 154 153 153
 0.0528 -0.1100  0.5304 154 154 150
 0.0519 -0.1100  0.5306 154 154 150
 0.0511 -0.1100  0.5307 155 155 151
 0.0502 -0.1100  0.5307 155 155 151
 0.0494 -0.1101  0.5309 155 155 151
 0.0486 -0.1101  0.5312 155 155 151
 0.0477 -0.1102  0.5313 155 155 151
 0.0469 -0.1102  0.5313 155 155 151
 0.0460 -0.1102  0.5314 157 154 151
 0.0452 -0.1102  0.5314 156 153 150
 0.0443 -0.1102  0.5314 157 154 151
 0.0434 -0.1102  0.5314 157 154 151
 0.0426 -0.1102  0.5314 157 153 154
 0.0417 -0.1102  0.5314 158 154 155
 0.0409 -0.1102  0.5314 158 154 155
 0.0400 -0.1102  0.5314 158 154 155
 0.0391 -0.1102  0.5313 157 153 154
 0.0383 -0.1102  0.5313 158 154 155
 0.0374 -0.1101  0.5312 155 154 154
 0.0366 -0.1101  0.5312 155 154 154
 0.0357 -0.1101  0.5312 155 154 154
 0.0348 -0.1101  0.5312 155 154 154
 0.0340 -0.1101  0.5312 156 155 155
 0.0331 -0.1101  0.5312 156 155 155
 0.0323 -0.1101  0.5312 155 154 154
 0.0314 -0.1101  0.5312 156 155 155
 0.0306 -0.1102  0.5313 156 155 155
 0.0297 -0.1102  0.5313 156 155 155
 0.0288 -0.1102  0.5314 158 154 155
 0.0280 -0.1102  0.5314 158 154 155
 0.0271 -0.1102  0.5316 158 154 155
 0.0263 -0.1102  0.5317 157 153 154
 0.0254 -0.1102  0.5317 158 154 155
 0.0246 -0.1102  0.5317 158 154 155
 0.0237 -0.1103  0.5318 156 155 155
 0.0229 -0.1103  0.5319 158 157 157
 0.0220 -0.1103  0.5319 156 155 155
 0.0211 -0.1103  0.5319 156 155 155
 0.0203 -0.1103  0.5318 156 155 155
 0.0194 -0.1102  0.5317 156 155 155
 0.0186 -0.1102  0.5317 158 157 157
 0.0177 -0.1102  0.5314 158 157 157
 0.0168 -0.1102  0.5313 158 157 157
 0.0160 -0.1101  0.5312 156 155 155
 0.0151 -0.1101  0.5311 158 157 157
 0.0142 -0.1101  0.5311 158 157 157
 0.0134 -0.1101  0.5309 158 157 157
 0.0125 -0.1100  0.5307 158 157 157
 0.0117 -0.1100  0.5304 158 157 157
 0.0108 -0.1100  0.5304 158 157 157
 0.0099 -0.1100  0.5304 158 157 157
 0.0091 -0.1100  0.5304 159 158 158
 0.0082 -0.1100  0.5304 159 158 158
 0.0074 -0.1100  0.5307 159 158 158
 0.0065 -0.1100  0.5307 158 157 157
 0.0057 -0.1100  0.5307 159 158 158
 0.0048 -0.1101  0.5309 159 158 158
 0.0040 -0.1101  0.5309 158 157 157
 0.0031 -0.1101  0.5309 159 158 158
 0.0022 -0.1101  0.5311 159 158 158
 0.0014 -0.1101  0.5311 159 158 158
 0.0005 -0.1101  0.5312 159 158 158
-0.0003 -0.1101  0.5312 159 158 158
-0.0012 -0.1101  0.5312 159 158 158
-0.0020 -0.1102  0.5313 159 158 158
-0.0029 -0.1102  0.5316 159 158 158
-0.0038 -0.1102  0.5316 159 158 158
-0.0046 -0.1102  0.5316 159 158 158
-0.0055 -0.1102  0.5317 159 158 158
-0.0063 -0.1102  0.5317 159 158 158
-0.0072 -0.1103  0.5318 160 159 159
-0.0081 -0.1103  0.5318 160 159 159
-0.0089 -0.1103  0.5319 160 159 159
-0.0098 -0.1103  0.5322 161 160 160
-0.0106 -0.1103  0.5322 160 159 159
-0.0115 -0.1103  0.5322 160 159 159
-0.0124 -0.1103  0.5322 159 159 159
-0.0132 -0.1103  0.5321 160 160 160
-0.0141 -0.1103  0.5319 160 160 160
-0.0149 -0.1103  0.5319 161 161 161
-0.0158 -0.1102  0.5316 160 160 160
-0.0166 -0.1102  0.5313 160 160 160
-0.0175 -0.1101  0.5312 161 161 161
-0.0183 -0.1101  0.5312 160 160 160
-0.0192 -0.1101  0.5309 161 160 160
-0.0200 -0.1101  0.5309 161 160 160
-0.0209 -0.1101  0.5309 161 160 160
-0.0218 -0.1101  0.5309 161 160 160
-0.0226 -0.1101  0.5309 161 160 160
-0.0235 -0.1101  0.5309 161 160 160
-0.0243 -0.1101  0.5309 162 161 161
-0.0252 -0.1101  0.5309 162 161 161
-0.0260 -0.1101  0.5309 162 161 161
-0.0269 -0.1101  0.5309 162 161 161
-0.0278 -0.1101  0.5309 163 162 162
-0.0286 -0.1101  0.5309 163 162 162
-0.0295 -0.1101  0.5311 163 162 162
-0.0303 -0.1101  0.5311 163 162 162
-0.0312 -0.1102  0.5313 163 162 162
-0.0321 -0.1102  0.5316 163 162 162
-0.0330 -0.1102  0.5317 163 162 162
-0.0338 -0.1102  0.5317 163 162 162
-0.0347 -0.1102  0.5317 165 164 164
-0.0355 -0.1102  0.5316 165 164 164
-0.0364 -0.1102  0.5314 166 165 165
-0.0372 -0.1102  0.5314 165 164 164
-0.0381 -0.1102  0.5313 165 164 164
-0.0389 -0.1101  0.5312 166 165 165
-0.0398 -0.1101  0.5312 166 165 165
-0.0406 -0.1101  0.5312 166 165 165
-0.0415 -0.1101  0.5312 166 165 167
-0.0424 -0.1102  0.5313 166 165 167
-0.0432 -0.1102  0.5314 167 166 168
-0.0441 -0.1102  0.5316 167 166 168
-0.0450 -0.1102  0.5316 167 166 168
-0.0458 -0.1103  0.5318 167 166 168
-0.0467 -0.1103  0.5318 168 167 169
-0.0475 -0.1102  0.5317 167 166 168
-0.0484 -0.1102  0.5317 167 166 168
-0.0492 -0.1102  0.5314 168 167 169
-0.0501 -0.1101  0.5312 167 166 166
-0.0509 -0.1101  0.5309 167 166 166
-0.0518 -0.1101  0.5309 168 167 167
-0.0526 -0.1101  0.5308 168 167 167
-0.0535 -0.1100  0.5307 169 168 168
-0.0543 -0.1100  0.5306 168 167 167
-0.0552 -0.1100  0.5306 170 169 169
-0.0560 -0.1100  0.5304 169 168 168
-0.0569 -0.1100  0.5304 170 169 171
-0.0577 -0.1100  0.5304 172 171 173
-0.0586 -0.1100  0.5304 172 171 173
-0.0594 -0.1100  0.5304 172 171 173
-0.0603 -0.1100  0.5304 173 172 174
-0.0611 -0.1100  0.5304 173 172 174
-0.0620 -0.1100  0.5304 173 172 174
-0.0629 -0.1100  0.5304 173 172 174
-0.0637 -0.1099  0.5302 174 173 175
-0.0645 -0.1099  0.5302 175 174 176
-0.0654 -0.1099  0.5302 175 174 176
-0.0663 -0.1099  0.5302 175 174 176
-0.0671 -0.1099  0.5301 175 174 176
-0.0679 -0.1099  0.5301 176 175 177
-0.0688 -0.1099  0.5302 177 176 178
-0.0697 -0.1099  0.5302 177 176 178
-0.0705 -0.1099  0.5301 177 176 178
-0.0714 -0.1099  0.5299 177 176 178
-0.0722 -0.1099  0.5299 179 178 180
-0.0731 -0.1099  0.5299 179 178 180
-0.0739 -0.1098  0.5298 178 178 180
-0.0748 -0.1098  0.5298 179 179 181
-0.0756 -0.1098  0.5298 179 179 181
-0.0765 -0.1098  0.5298 180 180 182
-0.0773 -0.1098  0.5297 180 180 182
-0.0782 -0.1098  0.5297 180 180 182
-0.0790 -0.1098  0.5294 181 181 183
-0.0798 -0.1098  0.5294 181 181 183
-0.0807 -0.1098  0.5294 182 182 184
-0.0816 -0.1098  0.5296 182 182 184
-0.0824 -0.1098  0.5296 183 183 185
-0.0833 -0.1098  0.5296 183 183 185
-0.0841 -0.1098  0.5297 185 185 187
-0.0850 -0.1098  0.5297 183 183 185
-0.0859 -0.1098  0.5297 182 182 184
-0.0867 -0.1098  0.5298 183 183 185
-0.0876 -0.1099  0.5299 183 183 185
-0.0884 -0.1098  0.5298 183 183 185
-0.0893 -0.1098  0.5297 182 182 184
-0.0901 -0.1098  0.5297 182 182 184
-0.0910 -0.1098  0.5297 182 182 184
-0.0918 -0.1098  0.5294 182 182 184
-0.0927 -0.1098  0.5294 181 181 183
-0.0935 -0.1098  0.5294 182 182 184
-0.0944 -0.1098  0.5294 182 182 184
-0.0952 -0.1098  0.5294 183 183 185
-0.0961 -0.1098  0.5294 183 183 185
-0.0970 -0.1098  0.5296 183 183 185
-0.0978 -0.1098  0.5296 183 183 185
-0.0987 -0.1098  0.5296 183 183 185
-0.0995 -0.1098  0.5294 183 183 185
-0.1003 -0.1097  0.5293 183 183 185
-0.1012 -0.1097  0.5292 182 182 184
-0.1020 -0.1097  0.5292 182 182 184
-0.1028 -0.1097  0.5291 182 182 184
-0.1037 -0.1097  0.5289 183 183 185
-0.1045 -0.1096  0.5288 182 182 184
-0.1054 -0.1096  0.5288 182 182 184
-0.1062 -0.1096  0.5286 179 182 183
-0.1070 -0.1096  0.5284 178 181 182
-0.1078 -0.1095  0.5283 181 184 185
-0.1087 -0.1095  0.5283 181 184 185
-0.1095 -0.1095  0.5282 181 184 185
-0.1104 -0.1095  0.5282 180 183 184
-0.1112 -0.1095  0.5282 179 182 183
-0.1121 -0.1095  0.5282 179 182 183
-0.1129 -0.1095  0.5282 182 182 184
-0.1138 -0.1095  0.5282 183 183 185
-0.1147 -0.1096  0.5284 181 184 185
-0.1156 -0.1096  0.5286 181 184 185
-0.1164 -0.1096  0.5286 183 186 187
-0.1173 -0.1096  0.5286 184 187 188
-0.1181 -0.1095  0.5283 184 187 188
-0.1189 -0.1095  0.5283 184 187 188
-0.1197 -0.1095  0.5279 185 188 189
-0.1204 -0.1094  0.5276 184 187 188
-0.1212 -0.1093  0.5272 183 186 187
-0.1221 -0.1093  0.5272 183 186 187
-0.1229 -0.1092  0.5269 183 186 187
-0.1237 -0.1092  0.5269 184 187 188
-0.1246 -0.1092  0.5269 184 187 188
-0.1254 -0.1093  0.5271 184 187 188
-0.1263 -0.1093  0.5271 184 187 188
-0.1272 -0.1093  0.5272 185 188 189
-0.1280 -0.1093  0.5273 185 188 189
-0.1289 -0.1093  0.5273 186 189 190
-0.1297 -0.1093  0.5272 183 189 189
-0.1306 -0.1093  0.5272 183 189 189
-0.1314 -0.1093  0.5271 183 189 189
-0.1322 -0.1093  0.5271 182 188 188
-0.1331 -0.1093  0.5271 182 188 188
-0.1339 -0.1093  0.5271 181 187 187
-0.1348 -0.1093  0.5271 179 185 185
-0.1356 -0.1093  0.5271 178 184 184
-0.1365 -0.1093  0.5271 178 181 182
-0.1374 -0.1093  0.5272 178 181 182
-0.1382 -0.1093  0.5272 177 180 181
-0.1391 -0.1093  0.5272 177 180 181
-0.1399 -0.1093  0.5271 176 179 180
-0.1407 -0.1092  0.5268 177 180 181
-0.1415 -0.1092  0.5267 176 179 180
-0.1424 -0.1092  0.5267 177 180 181
-0.1431 -0.1091  0.5264 176 179 180
-0.1440 -0.1091  0.5264 177 180 181
-0.1448 -0.1091  0.5264 177 180 181
-0.1457 -0.1091  0.5264 176 179 180
-0.1465 -0.1091  0.5264 176 179 180
-0.1474 -0.1091  0.5264 174 177 178
-0.1483 -0.1092  0.5266 174 177 178
-0.1492 -0.1092  0.5267 174 177 178
-0.1500 -0.1092  0.5267 173 176 177
-0.1509 -0.1092  0.5267 173 176 177
-0.1517 -0.1092  0.5267 174 177 178
-0.1526 -0.1092  0.5268 173 176 177
-0.1534 -0.1092  0.5267 175 175 177
-0.1543 -0.1092  0.5267 174 174 176
-0.1551 -0.1092  0.5268 174 174 176
-0.1560 -0.1092  0.5269 175 175 177
-0.1569 -0.1092  0.5269 174 174 176
-0.1577 -0.1092  0.5269 175 175 177
-0.1586 -0.1092  0.5269 172 175 176
-0.1594 -0.1092  0.5269 172 175 176
-0.1603 -0.1092  0.5268 171 174 175
-0.1611 -0.1092  0.5268 171 174 175
-0.1620 -0.1092  0.5268 171 174 175
-0.1628 -0.1092  0.5268 171 174 175
-0.1637 -0.1092  0.5268 171 174 175
-0.1652 -0.1097  0.5289 171 174 175
-0.1660 -0.1097  0.5289 171 174 175
-0.1669 -0.1097  0.5291 171 174 175
-0.1678 -0.1097  0.5291 171 174 175
-0.1687 -0.1097  0.5292 171 174 175
-0.1696 -0.1098  0.5294 171 174 175
-0.1706 -0.1098  0.5298 171 174 175
-0.1714 -0.1098  0.5298 171 174 175
-0.1724 -0.1099  0.5301 171 174 175
-0.1733 -0.1100  0.5304 170 173 174
-0.1742 -0.1100  0.5304 170 173 174
-0.1751 -0.1100  0.5304 171 174 173
-0.1758 -0.1099  0.5302 170 173 172
-0.1766 -0.1099  0.5299 172 172 172
-0.1775 -0.1099  0.5299 172 172 172
-0.1782 -0.1098  0.5294 172 172 172
-0.1788 -0.1097  0.5289 172 172 172
-0.1797 -0.1097  0.5289 172 172 172
-0.1805 -0.1096  0.5287 171 171 171
-0.1812 -0.1095  0.5283 171 171 171
-0.1820 -0.1095  0.5281 171 171 171
-0.1828 -0.1095  0.5281 171 171 171
-0.1836 -0.1095  0.5279 171 171 171
-0.1844 -0.1094  0.5277 171 171 171
-0.1852 -0.1094  0.5277 171 171 171
-0.1861 -0.1094  0.5277 171 171 171
-0.1869 -0.1094  0.5277 171 171 171
-0.1878 -0.1094  0.5277 169 169 169
-0.1887 -0.1094  0.5278 171 171 171
-0.1895 -0.1094  0.5278 171 171 171
-0.1904 -0.1095  0.5279 169 169 169
-0.1913 -0.1095  0.5281 171 171 171
-0.1922 -0.1095  0.5282 171 171 171
-0.1931 -0.1095  0.5282 171 171 171
-0.1940 -0.1095  0.5283 171 171 171
-0.1948 -0.1095  0.5283 169 169 169
-0.1957 -0.1095  0.5283 169 169 169
-0.1965 -0.1095  0.5282 169 169 169
-0.1973 -0.1095  0.5279 169 169 169
-0.1981 -0.1095  0.5279 169 169 169
-0.1989 -0.1094  0.5277 169 169 169
-0.1996 -0.1093  0.5273 169 169 169
-0.2003 -0.1092  0.5269 168 168 168
-0.2011 -0.1092  0.5269 168 168 168
-0.2019 -0.1092  0.5267 169 169 169
-0.2026 -0.1091  0.5264 169 169 169
-0.2034 -0.1091  0.5263 168 168 168
-0.2043 -0.1091  0.5263 169 169 169
-0.2051 -0.1091  0.5262 168 168 168
-0.2058 -0.1090  0.5259 167 167 167
-0.2067 -0.1090  0.5259 168 168 168
-0.2074 -0.1090  0.5257 168 168 168
-0.2082 -0.1090  0.5256 168 168 168
-0.2090 -0.1089  0.5254 169 169 169
-0.2099 -0.1089  0.5254 167 167 167
-0.2107 -0.1089  0.5254 168 168 168
-0.2116 -0.1090  0.5256 169 169 169
-0.2125 -0.1090  0.5257 168 168 168
-0.2134 -0.1090  0.5257 168 168 168
-0.2143 -0.1090  0.5258 169 169 169
-0.2152 -0.1090  0.5259 168 168 168
-0.2160 -0.1090  0.5259 167 167 167
-0.2168 -0.1090  0.5258 167 167 167
-0.2175 -0.1089  0.5254 167 167 167
-0.2184 -0.1089  0.5254 168 168 168
-0.2192 -0.1089  0.5253 168 168 168
-0.2200 -0.1089  0.5252 168 168 168
-0.2208 -0.1089  0.5252 167 167 167
-0.2225 -0.1093  0.5272 168 168 168
-0.2234 -0.1093  0.5272 167 167 167
-0.2243 -0.1093  0.5273 169 169 169
-0.2252 -0.1094  0.5274 168 168 168
-0.2261 -0.1094  0.5277 168 168 168
-0.2270 -0.1094  0.5277 169 169 169
-0.2279 -0.1094  0.5278 168 168 168
-0.2288 -0.1095  0.5279 168 168 168
-0.2296 -0.1095  0.5279 167 167 167
-0.2304 -0.1094  0.5278 167 167 167
-0.2312 -0.1094  0.5277 168 168 168
-0.2321 -0.1094  0.5277 167 167 167
-0.2328 -0.1094  0.5274 168 168 168
-0.2336 -0.1093  0.5273 168 168 168
-0.2345 -0.1093  0.5273 166 166 166
-0.2352 -0.1093  0.5271 165 168 169
-0.2360 -0.1092  0.5269 165 168 169
-0.2367 -0.1092  0.5266 164 167 166
-0.2376 -0.1092  0.5266 164 167 166
-0.2383 -0.1091  0.5263 165 168 167
-0.2390 -0.1090  0.5259 165 168 167
-0.2398 -0.1090  0.5259 165 168 167
-0.2406 -0.1090  0.5257 164 167 166
-0.2413 -0.1089  0.5254 166 166 166
-0.2421 -0.1089  0.5254 166 166 166
-0.2429 -0.1089  0.5253 167 167 167
-0.2437 -0.1089  0.5252 167 167 167
-0.2446 -0.1089  0.5252 167 167 167
-0.2454 -0.1089  0.5252 167 167 167
-0.2463 -0.1089  0.5252 165 168 167
-0.2472 -0.1089  0.5253 165 168 167
-0.2481 -0.1089  0.5254 166 169 168
-0.2489 -0.1089  0.5254 165 168 167
-0.2499 -0.1090  0.5257 165 168 167
-0.2510 -0.1091  0.5263 165 168 167
-0.2524 -0.1093  0.5273 165 168 167
-0.2532 -0.1093  0.5273 166 169 168
-0.2546 -0.1096  0.5284 165 168 167
-0.2559 -0.1097  0.5293 165 168 167
-0.2567 -0.1097  0.5293 166 169 168
-0.2579 -0.1099  0.5299 165 168 167
-0.2588 -0.1099  0.5301 165 168 167
-0.2597 -0.1099  0.5301 167 170 169
-0.2604 -0.1098  0.5298 166 169 168
-0.2611 -0.1098  0.5294 166 169 168
-0.2619 -0.1098  0.5294 166 169 168
-0.2625 -0.1097  0.5289 166 169 168
-0.2633 -0.1096  0.5287 166 169 168
-0.2641 -0.1096  0.5287 165 168 167
-0.2649 -0.1096  0.5284 166 169 168
-0.2657 -0.1096  0.5284 166 169 168
-0.2668 -0.1097  0.5289 166 169 168
-0.2677 -0.1097  0.5289 166 169 168
-0.2685 -0.1097  0.5289 166 169 168
-0.2695 -0.1097  0.5292 166 169 168
-0.2704 -0.1097  0.5293 167 170 169
-0.2713 -0.1097  0.5293 165 168 167
 0.2250 -0.1121  0.5367 163 166 169
 0.2237 -0.1119  0.5357 164 167 170
 0.2228 -0.1119  0.5357 163 166 169
 0.2214 -0.1116  0.5342 163 166 169
 0.2199 -0.1113  0.5327 163 166 167
 0.2190 -0.1113  0.5327 164 167 168
 0.2177 -0.1111  0.5317 163 166 167
 0.2166 -0.1109  0.5309 163 166 167
 0.2157 -0.1109  0.5309 162 165 166
 0.2148 -0.1109  0.5308 163 166 167
 0.2139 -0.1109  0.5307 163 166 167
 0.2130 -0.1109  0.5307 164 167 168
 0.2122 -0.1109  0.5307 164 167 168
 0.2113 -0.1109  0.5307 162 165 166
 0.2104 -0.1108  0.5304 163 166 167
 0.2095 -0.1108  0.5304 162 165 166
 0.2085 -0.1108  0.5301 162 165 166
 0.2075 -0.1107  0.5297 162 165 166
 0.2067 -0.1107  0.5297 162 165 166
 0.2057 -0.1106  0.5294 162 165 166
 0.2048 -0.1106  0.5292 162 165 166
 0.2039 -0.1106  0.5292 162 165 166
 0.2031 -0.1106  0.5293 163 166 167
 0.2022 -0.1106  0.5293 162 165 166
 0.2014 -0.1106  0.5294 160 163 164
 0.2007 -0.1107  0.5297 162 165 166
 0.1998 -0.1107  0.5297 162 165 166
 0.1991 -0.1107  0.5299 162 165 166
 0.1983 -0.1108  0.5303 162 162 164
 0.1975 -0.1108  0.5303 162 162 164
 0.1966 -0.1108  0.5303 162 162 164
 0.1956 -0.1107  0.5298 162 162 164
 0.1947 -0.1107  0.5298 161 161 165
 0.1936 -0.1106  0.5292 161 161 165
 0.1923 -0.1103  0.5279 160 163 166
 0.1915 -0.1103  0.5279 159 162 165
 0.1906 -0.1103  0.5278 159 162 163
 0.1897 -0.1103  0.5278 158 161 162
 0.1889 -0.1103  0.5279 157 160 159
 0.1881 -0.1103  0.5281 156 159 158
 0.1873 -0.1103  0.5281 158 158 158
 0.1865 -0.1104  0.5282 155 155 155
 0.1857 -0.1104  0.5284 155 155 159
 0.1850 -0.1105  0.5288 157 157 161
 0.1841 -0.1105  0.5288 155 155 157
 0.1834 -0.1106  0.5292 155 155 157
 0.1827 -0.1106  0.5296 155 155 157
 0.1819 -0.1107  0.5297 155 155 157
 0.1810 -0.1106  0.5296 158 157 159
 0.1800 -0.1106  0.5292 155 154 156
 0.1791 -0.1106  0.5292 155 154 156
 0.1781 -0.1105  0.5287 156 155 157
 0.1771 -0.1104  0.5283 155 155 157
 0.1763 -0.1104  0.5283 154 154 156
 0.1754 -0.1104  0.5282 154 154 154
 0.1745 -0.1104  0.5282 157 157 157
 0.1737 -0.1104  0.5282 157 157 157
 0.1729 -0.1104  0.5284 155 155 155
 0.1720 -0.1104  0.5284 154 154 154
 0.1713 -0.1105  0.5287 154 154 154
 0.1705 -0.1105  0.5288 154 154 154
 0.1697 -0.1105  0.5291 154 154 154
 0.1688 -0.1105  0.5291 155 154 154
 0.1680 -0.1106  0.5292 154 153 153
 0.1673 -0.1106  0.5296 155 154 154
 0.1665 -0.1107  0.5297 156 155 155
 0.1656 -0.1107  0.5297 156 155 155
 0.1648 -0.1107  0.5299 155 154 154
 0.1640 -0.1108  0.5301 154 153 153
 0.1632 -0.1108  0.5301 154 153 153
 0.1623 -0.1107  0.5299 154 154 154
 0.1613 -0.1107  0.5297 155 155 155
 0.1605 -0.1107  0.5297 154 154 154
 0.1595 -0.1106  0.5294 154 154 154
 0.1587 -0.1106  0.5294 154 154 154
 0.1578 -0.1106  0.5294 153 153 153
 0.1570 -0.1106  0.5294 154 154 154
 0.1561 -0.1106  0.5294 154 154 154
 0.1553 -0.1106  0.5296 155 154 154
 0.1545 -0.1107  0.5297 154 153 153
 0.1537 -0.1107  0.5299 155 154 154
 0.1528 -0.1107  0.5299 155 154 154
 0.1520 -0.1108  0.5301 154 154 154
 0.1512 -0.1108  0.5302 154 154 154
 0.1503 -0.1108  0.5302 152 155 154
 0.1496 -0.1108  0.5304 151 154 153
 0.1483 -0.1105  0.5288 154 154 154
 0.1474 -0.1105  0.5288 154 154 154
 0.1465 -0.1105  0.5287 154 154 154
 0.1457 -0.1105  0.5287 153 153 153
 0.1448 -0.1104  0.5286 153 153 153
 0.1439 -0.1104  0.5286 154 154 154
 0.1430 -0.1104  0.5284 155 154 154
 0.1422 -0.1104  0.5284 155 154 154
 0.1413 -0.1104  0.5284 154 153 153
 0.1405 -0.1104  0.5286 154 153 153
 0.1396 -0.1104  0.5286 154 153 153
 0.1388 -0.1105  0.5287 154 153 153
 0.1380 -0.1105  0.5288 153 152 152
 0.1372 -0.1105  0.5288 154 153 153
 0.1363 -0.1105  0.5287 155 155 151
 0.1353 -0.1104  0.5284 155 155 151
 0.1345 -0.1104  0.5284 155 155 151
 0.1336 -0.1104  0.5282 155 155 151
 0.1327 -0.1103  0.5279 155 155 151
 0.1318 -0.1103  0.5279 155 155 151
 0.1310 -0.1103  0.5279 153 154 150
 0.1301 -0.1103  0.5279 154 155 151
 0.1293 -0.1103  0.5279 151 155 150
 0.1285 -0.1104  0.5282 151 155 150
 0.1278 -0.1105  0.5289 152 156 151
 0.1269 -0.1105  0.5289 151 155 150
 0.1262 -0.1106  0.5296 152 153 149
 0.1254 -0.1107  0.5297 153 154 150
 0.1246 -0.1107  0.5299 153 154 150
 0.1238 -0.1107  0.5299 153 154 150
 0.1229 -0.1108  0.5301 153 154 150
 0.1221 -0.1108  0.5302 153 154 150
 0.1212 -0.1108  0.5302 153 154 150
 0.1204 -0.1108  0.5302 152 153 149
 0.1195 -0.1108  0.5302 152 153 149
 0.1187 -0.1108  0.5302 152 153 149
 0.1178 -0.1108  0.5302 152 153 147
 0.1170 -0.1108  0.5302 153 154 148
 0.1161 -0.1108  0.5302 153 154 150
 0.1152 -0.1108  0.5302 154 155 151
 0.1144 -0.1108  0.5302 155 156 152
 0.1135 -0.1108  0.5302 154 155 151
 0.1127 -0.1108  0.5304 154 155 151
 0.1119 -0.1108  0.5304 153 154 150
 0.1111 -0.1109  0.5307 152 153 149
 0.1102 -0.1109  0.5307 152 153 149
 0.1094 -0.1109  0.5307 152 153 149
 0.1085 -0.1109  0.5307 153 154 150
 0.1076 -0.1109  0.5307 153 154 150
 0.1068 -0.1109  0.5306 153 154 150
 0.1059 -0.1108  0.5304 155 155 151
 0.1050 -0.1108  0.5303 154 154 150
 0.1041 -0.1108  0.5303 155 155 151
 0.1033 -0.1108  0.5302 153 153 149
 0.1024 -0.1108  0.5302 153 153 149
 0.1015 -0.1108  0.5302 153 153 149
 0.1007 -0.1108  0.5302 153 153 149
 0.0998 -0.1108  0.5302 153 153 149
 0.0990 -0.1108  0.5302 154 154 150
 0.0981 -0.1108  0.5302 154 154 150
 0.0973 -0.1108  0.5302 154 154 150
 0.0964 -0.1108  0.5302 153 153 149
 0.0956 -0.1108  0.5302 153 153 149
 0.0947 -0.1108  0.5303 154 154 150
 0.0939 -0.1108  0.5304 153 153 149
 0.0930 -0.1108  0.5304 153 153 149
 0.0922 -0.1108  0.5304 154 154 150
 0.0913 -0.1108  0.5304 154 154 150
 0.0905 -0.1108  0.5304 153 153 149
 0.0896 -0.1108  0.5304 153 153 149
 0.0887 -0.1108  0.5304 153 153 149
 0.0879 -0.1108  0.5303 153 153 149
 0.0870 -0.1108  0.5303 153 153 149
 0.0861 -0.1108  0.5302 154 154 150
 0.0852 -0.1107  0.5299 154 154 150
 0.0841 -0.1103  0.5281 153 153 149
 0.0832 -0.1103  0.5281 153 153 149
 0.0824 -0.1103  0.5281 154 154 150
 0.0815 -0.1103  0.5281 154 154 150
 0.0807 -0.1103  0.5281 154 154 150
 0.0798 -0.1103  0.5281 154 154 150
 0.0790 -0.1103  0.5281 153 153 149
 0.0781 -0.1103  0.5281 154 154 150
 0.0773 -0.1103  0.5281 154 154 150
 0.0764 -0.1103  0.5281 156 153 150
 0.0756 -0.1103  0.5281 156 153 150
 0.0747 -0.1103  0.5279 155 152 149
 0.0738 -0.1103  0.5279 155 152 149
 0.0730 -0.1103  0.5279 156 153 150
 0.0721 -0.1103  0.5279 156 153 150
 0.0713 -0.1103  0.5279 155 152 149
 0.0704 -0.1103  0.5279 155 152 149
 0.0696 -0.1103  0.5279 157 154 151
 0.0687 -0.1103  0.5279 157 154 151
 0.0679 -0.1103  0.5279 156 153 150
 0.0670 -0.1103  0.5279 157 154 151
 0.0662 -0.1103  0.5281 157 152 150
 0.0653 -0.1104  0.5282 157 152 150
 0.0645 -0.1104  0.5282 157 152 150
 0.0636 -0.1104  0.5282 158 153 151
 0.0628 -0.1104  0.5282 156 153 150
 0.0619 -0.1104  0.5283 157 154 151
 0.0611 -0.1104  0.5282 157 154 151
 0.0602 -0.1104  0.5282 157 154 151
 0.0594 -0.1104  0.5282 157 153 154
 0.0585 -0.1104  0.5282 157 153 154
 0.0577 -0.1104  0.5282 155 154 154
 0.0568 -0.1104  0.5282 155 154 154
 0.0560 -0.1104  0.5282 155 154 154
 0.0551 -0.1104  0.5283 155 154 154
 0.0543 -0.1104  0.5283 155 154 156
 0.0534 -0.1104  0.5284 154 153 155
 0.0526 -0.1104  0.5284 154 153 153
 0.0517 -0.1105  0.5287 155 154 154
 0.0509 -0.1105  0.5287 155 155 151
 0.0500 -0.1105  0.5287 155 155 151
 0.0492 -0.1105  0.5289 155 155 151
 0.0484 -0.1105  0.5291 155 155 151
 0.0475 -0.1106  0.5292 155 155 151
 0.0467 -0.1106  0.5292 155 155 151
 0.0458 -0.1106  0.5293 157 154 151
 0.0450 -0.1106  0.5294 157 154 151
 0.0441 -0.1106  0.5294 158 155 152
 0.0433 -0.1106  0.5294 157 154 151
 0.0424 -0.1106  0.5296 157 153 154
 0.0416 -0.1106  0.5294 158 154 155
 0.0407 -0.1106  0.5294 158 154 155
 0.0399 -0.1106  0.5294 158 154 155
 0.0390 -0.1106  0.5293 157 153 154
 0.0381 -0.1106  0.5292 158 154 155
 0.0373 -0.1105  0.5291 155 154 154
 0.0364 -0.1105  0.5291 155 154 154
 0.0355 -0.1105  0.5289 155 154 154
 0.0347 -0.1105  0.5288 155 154 154
 0.0338 -0.1105  0.5288 156 155 155
 0.0330 -0.1105  0.5288 156 155 155
 0.0321 -0.1105  0.5287 156 155 155
 0.0313 -0.1105  0.5287 156 155 155
 0.0304 -0.1105  0.5288 156 155 155
 0.0296 -0.1105  0.5289 156 155 155
 0.0287 -0.1105  0.5289 158 154 155
 0.0279 -0.1106  0.5292 158 154 155
 0.0270 -0.1106  0.5294 158 154 155
 0.0262 -0.1107  0.5297 158 154 155
 0.0253 -0.1107  0.5298 158 154 155
 0.0245 -0.1107  0.5298 158 154 155
 0.0236 -0.1107  0.5299 158 154 155
 0.0228 -0.1107  0.5299 160 156 157
 0.0219 -0.1107  0.5299 158 154 155
 0.0211 -0.1107  0.5299 160 156 157
 0.0202 -0.1107  0.5298 156 155 155
 0.0193 -0.1107  0.5297 156 155 155
 0.0185 -0.1107  0.5297 156 155 155
 0.0176 -0.1106  0.5294 156 155 155
 0.0168 -0.1106  0.5292 156 155 155
 0.0159 -0.1105  0.5291 156 155 155
 0.0150 -0.1105  0.5291 158 157 157
 0.0142 -0.1105  0.5288 158 157 157
 0.0133 -0.1105  0.5287 158 157 157
 0.0125 -0.1104  0.5286 158 157 157
 0.0116 -0.1104  0.5286 158 157 157
 0.0108 -0.1104  0.5284 158 157 157
 0.0099 -0.1104  0.5284 159 158 158
 0.0091 -0.1104  0.5284 159 158 158
 0.0082 -0.1104  0.5284 159 159 155
 0.0074 -0.1104  0.5286 159 159 155
 0.0065 -0.1104  0.5286 158 157 157
 0.0056 -0.1105  0.5287 158 157 157
 0.0048 -0.1105  0.5289 159 158 158
 0.0039 -0.1106  0.5292 159 158 158
 0.0031 -0.1106  0.5292 159 158 158
 0.0022 -0.1106  0.5294 159 158 158
 0.0014 -0.1106  0.5294 159 158 158
 0.0005 -0.1106  0.5296 160 159 159
-0.0003 -0.1106  0.5296 159 158 158
-0.0012 -0.1107  0.5297 159 158 158
-0.0020 -0.1107  0.5297 159 158 158
-0.0029 -0.1107  0.5299 159 158 158
