ply
format ascii 1.0
element vertex 1328
property float x
property float y
property float z
property uchar red
property uchar green
property uchar blue
end_header
 0.2060 -0.1213  0.5029 157 160 163
 0.2044 -0.1209  0.5012 158 161 164
 0.2036 -0.1209  0.5012 157 160 163
 0.2028 -0.1209  0.5012 157 160 163
 0.2020 -0.1209  0.5012 157 160 163
 0.2012 -0.1209  0.5012 158 161 164
 0.2004 -0.1209  0.5012 158 161 162
 0.1996 -0.1209  0.5012 158 161 162
 0.1988 -0.1209  0.5012 158 161 162
 0.1980 -0.1209  0.5013 158 161 162
 0.1973 -0.1210  0.5014 158 161 162
 0.1964 -0.1210  0.5014 157 160 161
 0.1957 -0.1210  0.5017 157 160 161
 0.1949 -0.1210  0.5017 157 160 161
 0.1941 -0.1210  0.5017 157 160 161
 0.1932 -0.1210  0.5014 157 160 161
 0.1924 -0.1210  0.5014 157 160 163
 0.1915 -0.1209  0.5013 157 160 163
 0.1907 -0.1209  0.5013 160 160 164
 0.1899 -0.1209  0.5013 160 160 164
 0.1892 -0.1210  0.5014 159 159 163
 0.1884 -0.1210  0.5014 158 158 162
 0.1876 -0.1210  0.5017 159 159 163
 0.1870 -0.1211  0.5021 159 159 163
 0.1862 -0.1211  0.5021 159 159 161
 0.1855 -0.1212  0.5024 158 158 160
 0.1848 -0.1213  0.5028 158 158 160
 0.1841 -0.1214  0.5032 158 158 160
 0.1833 -0.1214  0.5032 156 159 160
 0.1826 -0.1214  0.5034 155 158 159
 0.1818 -0.1215  0.5036 155 158 159
 0.1810 -0.1215  0.5036 156 159 160
 0.1802 -0.1214  0.5034 156 159 160
 0.1793 -0.1214  0.5032 155 158 159
 0.1784 -0.1214  0.5032 156 159 160
 0.1775 -0.1213  0.5027 156 159 160
 0.1765 -0.1211  0.5022 155 158 159
 0.1757 -0.1211  0.5022 155 158 159
 0.1748 -0.1211  0.5019 156 159 160
 0.1739 -0.1210  0.5017 156 159 160
 0.1730 -0.1210  0.5016 156 159 160
 0.1722 -0.1210  0.5016 156 159 160
 0.1707 -0.1205  0.4996 158 158 160
 0.1699 -0.1205  0.4996 158 158 160
 0.1691 -0.1205  0.4996 158 158 160
 0.1683 -0.1205  0.4996 157 157 159
 0.1675 -0.1205  0.4996 157 157 159
 0.1667 -0.1205  0.4997 158 158 160
 0.1660 -0.1206  0.4999 157 157 159
 0.1652 -0.1206  0.4999 157 157 159
 0.1644 -0.1206  0.5001 157 157 159
 0.1637 -0.1207  0.5004 155 155 157
 0.1630 -0.1208  0.5008 157 157 159
 0.1622 -0.1208  0.5008 157 157 159
 0.1616 -0.1209  0.5013 155 155 157
 0.1609 -0.1211  0.5018 157 157 159
 0.1601 -0.1211  0.5018 157 157 159
 0.1595 -0.1212  0.5023 155 155 157
 0.1588 -0.1213  0.5027 155 155 157
 0.1581 -0.1214  0.5031 155 155 157
 0.1573 -0.1214  0.5031 155 155 157
 0.1565 -0.1214  0.5032 154 154 156
 0.1557 -0.1214  0.5031 154 154 156
 0.1548 -0.1214  0.5031 155 155 157
 0.1540 -0.1213  0.5028 155 155 157
 0.1530 -0.1212  0.5024 155 155 157
 0.1522 -0.1212  0.5024 155 155 157
 0.1513 -0.1211  0.5022 155 155 157
 0.1505 -0.1211  0.5021 154 154 156
 0.1497 -0.1211  0.5021 154 154 156
 0.1489 -0.1211  0.5021 154 154 156
 0.1480 -0.1211  0.5019 155 155 157
 0.1472 -0.1211  0.5019 154 154 156
 0.1464 -0.1211  0.5019 154 154 156
 0.1456 -0.1211  0.5019 154 154 156
 0.1447 -0.1211  0.5018 154 154 156
 0.1439 -0.1211  0.5018 153 153 155
 0.1431 -0.1211  0.5018 154 154 156
 0.1423 -0.1211  0.5018 155 155 157
 0.1415 -0.1210  0.5017 154 154 156
 0.1406 -0.1210  0.5016 154 154 156
 0.1398 -0.1210  0.5016 153 153 155
 0.1390 -0.1210  0.5014 154 154 156
 0.1381 -0.1209  0.5012 154 154 156
 0.1372 -0.1209  0.5011 154 154 154
 0.1364 -0.1209  0.5011 154 154 154
 0.1356 -0.1208  0.5009 154 154 154
 0.1348 -0.1208  0.5009 154 154 154
 0.1340 -0.1209  0.5011 154 154 154
 0.1332 -0.1209  0.5012 154 154 154
 0.1324 -0.1209  0.5012 154 154 154
 0.1314 -0.1207  0.5004 154 154 154
 0.1306 -0.1207  0.5004 153 153 153
 0.1298 -0.1207  0.5004 154 154 154
 0.1290 -0.1208  0.5007 155 155 155
 0.1282 -0.1208  0.5006 154 154 154
 0.1274 -0.1208  0.5006 155 154 154
 0.1266 -0.1207  0.5004 155 154 154
 0.1257 -0.1207  0.5002 155 155 151
 0.1248 -0.1206  0.4999 155 155 151
 0.1240 -0.1206  0.4999 155 155 151
 0.1232 -0.1206  0.4998 155 155 151
 0.1224 -0.1206  0.4998 154 155 151
 0.1216 -0.1206  0.4998 154 155 151
 0.1208 -0.1206  0.5001 154 155 151
 0.1200 -0.1206  0.5001 154 155 151
 0.1193 -0.1207  0.5004 153 153 153
 0.1185 -0.1208  0.5007 153 153 153
 0.1178 -0.1209  0.5011 153 153 153
 0.1170 -0.1209  0.5011 153 153 153
 0.1163 -0.1209  0.5013 154 154 154
 0.1155 -0.1210  0.5014 154 154 154
 0.1147 -0.1210  0.5017 154 154 154
 0.1139 -0.1210  0.5017 153 153 153
 0.1132 -0.1211  0.5019 154 154 154
 0.1124 -0.1211  0.5022 154 154 154
 0.1116 -0.1212  0.5023 154 154 154
 0.1108 -0.1212  0.5023 153 153 153
 0.1100 -0.1212  0.5024 153 153 153
 0.1092 -0.1211  0.5022 153 153 153
 0.1084 -0.1211  0.5022 154 154 154
 0.1075 -0.1211  0.5022 154 154 154
 0.1067 -0.1211  0.5019 155 154 154
 0.1058 -0.1211  0.5018 155 154 154
 0.1050 -0.1211  0.5018 155 154 154
 0.1042 -0.1210  0.5017 155 154 154
 0.1034 -0.1210  0.5016 155 154 154
 0.1025 -0.1210  0.5014 154 153 153
 0.1017 -0.1210  0.5014 153 153 153
 0.1009 -0.1209  0.5013 153 153 153
 0.1000 -0.1209  0.5012 153 153 153
 0.0992 -0.1209  0.5012 154 154 154
 0.0984 -0.1209  0.5012 153 154 150
 0.0976 -0.1209  0.5012 153 154 150
 0.0968 -0.1209  0.5012 153 154 150
 0.0960 -0.1209  0.5013 153 154 150
 0.0953 -0.1210  0.5016 153 154 150
 0.0944 -0.1210  0.5016 152 153 149
 0.0937 -0.1211  0.5018 153 154 150
 0.0929 -0.1211  0.5019 153 154 150
 0.0921 -0.1211  0.5022 154 154 150
 0.0913 -0.1211  0.5022 154 154 150
 0.0905 -0.1212  0.5023 153 152 152
 0.0897 -0.1212  0.5024 153 152 152
 0.0890 -0.1212  0.5026 154 153 153
 0.0881 -0.1212  0.5026 154 153 153
 0.0873 -0.1212  0.5026 154 153 153
 0.0865 -0.1212  0.5024 154 153 153
 0.0857 -0.1212  0.5024 154 153 153
 0.0849 -0.1212  0.5024 154 153 153
 0.0840 -0.1212  0.5023 154 153 153
 0.0832 -0.1211  0.5022 154 153 153
 0.0824 -0.1211  0.5022 153 152 152
 0.0816 -0.1211  0.5021 153 152 152
 0.0807 -0.1211  0.5019 154 153 153
 0.0799 -0.1211  0.5019 154 153 153
 0.0791 -0.1211  0.5019 154 153 153
 0.0783 -0.1211  0.5019 154 153 153
 0.0775 -0.1211  0.5019 154 154 150
 0.0764 -0.1207  0.5002 153 153 149
 0.0756 -0.1207  0.5002 154 154 150
 0.0748 -0.1206  0.5001 153 153 149
 0.0740 -0.1206  0.4999 154 154 150
 0.0732 -0.1206  0.4999 153 153 149
 0.0723 -0.1206  0.4999 154 154 150
 0.0715 -0.1206  0.4998 154 154 150
 0.0707 -0.1206  0.4998 154 154 150
 0.0699 -0.1206  0.4998 154 154 150
 0.0691 -0.1206  0.4999 154 154 150
 0.0683 -0.1206  0.4999 154 154 150
 0.0675 -0.1206  0.4999 154 154 150
 0.0667 -0.1206  0.5001 154 154 150
 0.0659 -0.1207  0.5002 154 154 150
 0.0651 -0.1207  0.5002 155 155 151
 0.0643 -0.1207  0.5003 155 155 151
 0.0635 -0.1208  0.5006 155 155 151
 0.0628 -0.1208  0.5007 154 154 150
 0.0619 -0.1208  0.5007 154 154 150
 0.0612 -0.1208  0.5009 155 155 151
 0.0604 -0.1209  0.5012 155 155 151
 0.0596 -0.1209  0.5012 155 155 151
 0.0588 -0.1209  0.5012 156 156 152
 0.0580 -0.1209  0.5012 155 155 151
 0.0571 -0.1208  0.5009 155 155 151
 0.0563 -0.1208  0.5008 155 155 151
 0.0555 -0.1208  0.5008 155 155 151
 0.0547 -0.1208  0.5006 155 155 151
 0.0538 -0.1207  0.5004 155 155 151
 0.0530 -0.1207  0.5004 155 155 151
 0.0522 -0.1207  0.5004 155 155 151
 0.0514 -0.1207  0.5004 155 154 154
 0.0506 -0.1207  0.5003 155 154 154
 0.0498 -0.1207  0.5003 155 154 154
 0.0490 -0.1207  0.5003 155 154 154
 0.0482 -0.1207  0.5002 155 154 154
 0.0473 -0.1207  0.5002 155 154 154
 0.0465 -0.1207  0.5002 155 154 154
 0.0457 -0.1207  0.5002 155 154 154
 0.0449 -0.1206  0.5001 155 154 154
 0.0441 -0.1206  0.5001 155 154 154
 0.0433 -0.1206  0.5001 155 155 151
 0.0425 -0.1207  0.5002 156 156 152
 0.0417 -0.1207  0.5002 156 155 155
 0.0409 -0.1207  0.5004 156 155 155
 0.0401 -0.1208  0.5007 156 155 157
 0.0393 -0.1209  0.5011 156 155 157
 0.0385 -0.1209  0.5013 156 155 155
 0.0377 -0.1209  0.5013 156 155 155
 0.0370 -0.1210  0.5017 156 155 155
 0.0362 -0.1211  0.5019 156 155 155
 0.0354 -0.1211  0.5021 156 155 155
 0.0345 -0.1211  0.5021 156 155 155
 0.0337 -0.1211  0.5022 155 155 151
 0.0329 -0.1211  0.5022 156 156 152
 0.0321 -0.1211  0.5022 158 155 152
 0.0313 -0.1211  0.5019 158 155 152
 0.0305 -0.1211  0.5019 160 157 154
 0.0297 -0.1211  0.5018 160 157 154
 0.0289 -0.1211  0.5018 158 158 154
 0.0280 -0.1210  0.5017 158 158 154
 0.0272 -0.1210  0.5017 158 158 154
 0.0264 -0.1210  0.5017 158 158 154
 0.0256 -0.1210  0.5017 156 155 155
 0.0248 -0.1210  0.5017 158 157 157
 0.0240 -0.1210  0.5017 158 157 157
 0.0232 -0.1210  0.5017 158 157 157
 0.0224 -0.1210  0.5017 158 157 157
 0.0216 -0.1210  0.5017 158 157 157
 0.0208 -0.1210  0.5017 158 157 157
 0.0199 -0.1210  0.5017 159 158 158
 0.0191 -0.1210  0.5014 159 158 158
 0.0183 -0.1210  0.5014 159 158 158
 0.0175 -0.1209  0.5012 159 159 155
 0.0167 -0.1208  0.5009 159 159 155
 0.0159 -0.1208  0.5009 159 159 155
 0.0151 -0.1208  0.5009 159 159 155
 0.0142 -0.1208  0.5009 159 158 158
 0.0134 -0.1209  0.5011 159 158 158
 0.0126 -0.1209  0.5012 159 158 158
 0.0118 -0.1210  0.5014 159 158 158
 0.0110 -0.1210  0.5016 159 158 158
 0.0102 -0.1210  0.5016 160 159 159
 0.0094 -0.1210  0.5016 160 159 159
 0.0086 -0.1210  0.5014 159 158 158
 0.0078 -0.1210  0.5014 160 159 159
 0.0070 -0.1209  0.5012 160 159 159
 0.0062 -0.1209  0.5011 160 159 159
 0.0054 -0.1208  0.5009 160 159 159
 0.0045 -0.1208  0.5009 160 159 159
 0.0037 -0.1208  0.5009 160 159 159
 0.0029 -0.1208  0.5009 160 159 159
 0.0021 -0.1208  0.5008 160 159 159
 0.0013 -0.1208  0.5008 160 159 159
 0.0005 -0.1208  0.5007 160 159 159
-0.0003 -0.1208  0.5007 160 159 159
-0.0011 -0.1208  0.5007 161 160 160
-0.0019 -0.1208  0.5007 160 159 159
-0.0027 -0.1208  0.5007 160 159 159
-0.0035 -0.1208  0.5007 160 159 159
-0.0044 -0.1208  0.5008 162 161 161
-0.0052 -0.1208  0.5007 161 160 162
-0.0060 -0.1208  0.5007 161 160 162
-0.0068 -0.1208  0.5007 162 161 163
-0.0076 -0.1207  0.5004 161 160 162
-0.0084 -0.1207  0.5004 161 160 162
-0.0092 -0.1207  0.5004 162 161 163
-0.0100 -0.1207  0.5003 162 161 163
-0.0108 -0.1207  0.5003 162 161 163
-0.0116 -0.1207  0.5004 161 161 163
-0.0124 -0.1207  0.5004 161 161 163
-0.0132 -0.1207  0.5004 162 162 164
-0.0141 -0.1208  0.5006 162 162 164
-0.0149 -0.1208  0.5006 162 162 164
-0.0157 -0.1208  0.5006 162 162 164
-0.0165 -0.1208  0.5006 162 162 164
-0.0173 -0.1208  0.5006 162 162 164
-0.0181 -0.1208  0.5006 164 164 164
-0.0189 -0.1208  0.5006 164 164 164
-0.0197 -0.1208  0.5007 164 164 164
-0.0205 -0.1208  0.5007 164 164 164
-0.0213 -0.1208  0.5008 164 164 164
-0.0222 -0.1208  0.5009 165 165 165
-0.0230 -0.1209  0.5011 165 165 165
-0.0238 -0.1209  0.5011 165 165 165
-0.0246 -0.1209  0.5012 165 165 165
-0.0254 -0.1208  0.5009 165 165 165
-0.0262 -0.1208  0.5009 165 165 165
-0.0270 -0.1208  0.5007 166 166 166
-0.0278 -0.1207  0.5004 166 166 166
-0.0286 -0.1206  0.5001 166 166 166
-0.0294 -0.1206  0.5001 166 166 166
-0.0302 -0.1206  0.4999 166 166 166
-0.0310 -0.1206  0.4998 166 166 166
-0.0318 -0.1206  0.4998 165 165 165
-0.0326 -0.1206  0.4999 167 167 167
-0.0334 -0.1206  0.4999 166 166 166
-0.0342 -0.1206  0.4999 166 166 166
-0.0350 -0.1206  0.5001 166 166 166
-0.0358 -0.1206  0.5001 167 167 167
-0.0366 -0.1206  0.5001 167 167 167
-0.0374 -0.1206  0.4999 167 167 167
-0.0382 -0.1205  0.4997 168 168 168
-0.0390 -0.1205  0.4996 168 168 168
-0.0398 -0.1205  0.4996 168 168 168
-0.0406 -0.1205  0.4993 168 168 168
-0.0414 -0.1204  0.4992 168 168 168
-0.0422 -0.1204  0.4989 168 168 168
-0.0430 -0.1204  0.4989 169 169 169
-0.0438 -0.1203  0.4988 169 169 171
-0.0446 -0.1203  0.4987 169 169 171
-0.0454 -0.1203  0.4987 171 171 173
-0.0462 -0.1203  0.4987 172 172 174
-0.0470 -0.1203  0.4987 171 171 173
-0.0478 -0.1203  0.4988 171 171 173
-0.0486 -0.1203  0.4988 171 171 173
-0.0494 -0.1203  0.4988 172 172 174
-0.0503 -0.1204  0.4989 172 172 174
-0.0511 -0.1204  0.4989 172 172 174
-0.0519 -0.1204  0.4991 173 173 175
-0.0527 -0.1204  0.4992 172 172 174
-0.0535 -0.1205  0.4993 173 173 175
-0.0543 -0.1205  0.4993 173 173 175
-0.0552 -0.1205  0.4994 173 173 175
-0.0560 -0.1205  0.4994 173 173 175
-0.0568 -0.1205  0.4996 174 174 176
-0.0576 -0.1205  0.4996 175 175 177
-0.0584 -0.1205  0.4994 175 175 177
-0.0592 -0.1205  0.4993 176 176 178
-0.0599 -0.1204  0.4991 176 176 178
-0.0607 -0.1204  0.4991 176 176 178
-0.0615 -0.1202  0.4984 178 178 180
-0.0623 -0.1202  0.4982 179 179 181
-0.0630 -0.1202  0.4981 179 179 181
-0.0638 -0.1202  0.4981 180 180 182
-0.0646 -0.1201  0.4979 180 180 182
-0.0654 -0.1201  0.4979 180 180 182
-0.0663 -0.1202  0.4982 181 181 183
-0.0671 -0.1203  0.4986 181 181 183
-0.0679 -0.1203  0.4986 180 183 184
-0.0688 -0.1204  0.4991 180 183 184
-0.0697 -0.1205  0.4994 181 184 185
-0.0705 -0.1205  0.4997 181 184 185
-0.0713 -0.1205  0.4997 183 186 187
-0.0722 -0.1206  0.4999 183 186 187
-0.0730 -0.1207  0.5002 183 186 187
-0.0738 -0.1207  0.5003 183 186 187
-0.0746 -0.1207  0.5003 184 187 188
-0.0754 -0.1207  0.5003 184 187 188
-0.0763 -0.1207  0.5003 184 187 188
-0.0770 -0.1207  0.5002 185 188 189
-0.0778 -0.1207  0.5002 185 188 189
-0.0786 -0.1206  0.5001 185 188 189
-0.0794 -0.1206  0.4999 185 188 189
-0.0802 -0.1205  0.4997 186 189 190
-0.0810 -0.1205  0.4997 187 190 191
-0.0818 -0.1205  0.4994 187 190 191
-0.0825 -0.1204  0.4992 187 190 191
-0.0832 -0.1203  0.4986 187 190 191
-0.0840 -0.1203  0.4986 188 191 192
-0.0847 -0.1201  0.4979 188 191 192
-0.0855 -0.1201  0.4977 190 193 194
-0.0863 -0.1200  0.4974 190 193 194
-0.0871 -0.1200  0.4974 190 193 194
-0.0878 -0.1200  0.4973 191 194 195
-0.0886 -0.1200  0.4973 191 194 195
-0.0895 -0.1200  0.4974 193 196 197
-0.0903 -0.1201  0.4977 193 196 197
-0.0911 -0.1201  0.4977 194 197 198
-0.0920 -0.1201  0.4979 193 196 197
-0.0928 -0.1202  0.4982 194 197 198
-0.0937 -0.1202  0.4984 194 197 200
-0.0945 -0.1202  0.4984 194 197 200
-0.0953 -0.1202  0.4984 192 195 198
-0.0960 -0.1202  0.4982 191 194 197
-0.0968 -0.1202  0.4982 191 194 197
-0.0976 -0.1201  0.4979 191 194 197
-0.0983 -0.1200  0.4976 192 195 198
-0.0991 -0.1199  0.4972 194 197 200
-0.0999 -0.1199  0.4972 198 201 204
-0.1006 -0.1199  0.4971 199 202 205
-0.1014 -0.1199  0.4969 198 201 204
-0.1022 -0.1199  0.4969 198 201 204
-0.1030 -0.1199  0.4971 195 198 201
-0.1038 -0.1199  0.4971 194 197 200
-0.1047 -0.1200  0.4973 195 198 201
-0.1056 -0.1200  0.4976 197 200 203
-0.1064 -0.1201  0.4978 195 198 201
-0.1072 -0.1201  0.4978 193 196 199
-0.1081 -0.1201  0.4979 191 194 197
-0.1089 -0.1201  0.4979 187 190 193
-0.1096 -0.1201  0.4977 188 191 192
-0.1104 -0.1201  0.4977 190 193 194
-0.1112 -0.1200  0.4976 188 191 190
-0.1120 -0.1200  0.4974 191 194 193
-0.1127 -0.1199  0.4972 190 193 192
-0.1135 -0.1199  0.4972 190 193 192
-0.1143 -0.1199  0.4971 188 191 190
-0.1150 -0.1198  0.4968 188 191 190
-0.1158 -0.1198  0.4968 188 191 190
-0.1166 -0.1198  0.4966 188 191 190
-0.1173 -0.1198  0.4964 188 191 190
-0.1181 -0.1198  0.4964 188 191 190
-0.1189 -0.1198  0.4964 190 193 192
-0.1198 -0.1198  0.4964 190 193 192
-0.1206 -0.1198  0.4964 190 193 192
-0.1214 -0.1198  0.4964 190 193 192
-0.1222 -0.1198  0.4966 188 191 190
-0.1230 -0.1198  0.4966 188 191 190
-0.1238 -0.1198  0.4967 188 191 190
-0.1247 -0.1199  0.4969 187 190 189
-0.1256 -0.1199  0.4972 186 189 188
-0.1264 -0.1200  0.4973 187 190 189
-0.1272 -0.1200  0.4973 187 190 189
-0.1281 -0.1200  0.4976 187 190 189
-0.1289 -0.1200  0.4976 188 191 190
-0.1297 -0.1200  0.4976 187 190 189
-0.1304 -0.1200  0.4974 187 190 189
-0.1312 -0.1200  0.4973 187 190 189
-0.1320 -0.1200  0.4973 187 190 189
-0.1331 -0.1202  0.4984 185 188 187
-0.1338 -0.1202  0.4982 185 188 187
-0.1346 -0.1202  0.4981 185 188 187
-0.1354 -0.1201  0.4979 184 187 186
-0.1362 -0.1201  0.4979 184 187 186
-0.1370 -0.1201  0.4979 184 187 186
-0.1378 -0.1201  0.4978 183 186 185
-0.1385 -0.1201  0.4977 183 186 185
-0.1393 -0.1201  0.4977 183 186 185
-0.1401 -0.1200  0.4976 183 186 185
-0.1409 -0.1200  0.4974 183 186 185
-0.1416 -0.1200  0.4973 181 184 183
-0.1424 -0.1200  0.4973 181 184 183
-0.1433 -0.1200  0.4973 181 184 183
-0.1441 -0.1200  0.4973 180 183 182
-0.1449 -0.1200  0.4973 180 183 182
-0.1457 -0.1200  0.4973 180 183 182
-0.1465 -0.1200  0.4973 180 183 182
-0.1473 -0.1200  0.4974 180 183 182
-0.1481 -0.1200  0.4974 179 182 181
-0.1489 -0.1200  0.4974 180 183 182
-0.1497 -0.1200  0.4973 179 182 181
-0.1504 -0.1199  0.4971 179 182 181
-0.1512 -0.1199  0.4971 179 182 181
-0.1520 -0.1199  0.4969 179 182 181
-0.1527 -0.1198  0.4967 178 181 180
-0.1535 -0.1198  0.4967 178 181 180
-0.1543 -0.1198  0.4967 179 182 181
-0.1551 -0.1198  0.4966 178 181 180
-0.1558 -0.1198  0.4964 178 181 182
-0.1566 -0.1198  0.4964 178 181 182
-0.1574 -0.1198  0.4964 177 180 181
-0.1582 -0.1197  0.4963 178 181 182
-0.1590 -0.1197  0.4962 177 180 179
-0.1597 -0.1197  0.4961 178 181 180
-0.1605 -0.1197  0.4961 177 180 179
-0.1613 -0.1197  0.4961 177 180 179
-0.1621 -0.1197  0.4961 179 179 179
-0.1629 -0.1197  0.4961 179 179 179
-0.1637 -0.1197  0.4961 179 179 179
-0.1646 -0.1197  0.4962 179 179 179
-0.1654 -0.1198  0.4964 178 178 180
-0.1663 -0.1198  0.4967 178 178 180
-0.1671 -0.1198  0.4967 179 179 181
-0.1679 -0.1198  0.4967 178 178 180
-0.1687 -0.1198  0.4967 178 178 178
-0.1695 -0.1198  0.4967 179 179 179
-0.1703 -0.1198  0.4966 178 178 178
-0.1711 -0.1198  0.4966 179 179 179
-0.1719 -0.1198  0.4966 179 179 179
-0.1727 -0.1198  0.4967 179 179 179
-0.1735 -0.1198  0.4967 178 178 178
-0.1743 -0.1198  0.4967 178 178 178
-0.1752 -0.1199  0.4969 174 177 178
-0.1760 -0.1199  0.4969 174 177 178
-0.1768 -0.1199  0.4969 176 179 180
-0.1776 -0.1198  0.4968 176 179 180
-0.1784 -0.1198  0.4968 178 178 180
-0.1791 -0.1198  0.4966 178 178 180
-0.1797 -0.1197  0.4961 176 176 178
-0.1804 -0.1196  0.4957 176 176 178
-0.1812 -0.1196  0.4957 178 178 180
-0.1820 -0.1195  0.4956 176 176 178
-0.1828 -0.1195  0.4956 176 176 178
-0.1836 -0.1195  0.4956 176 176 178
-0.1844 -0.1196  0.4957 175 175 177
-0.1852 -0.1196  0.4957 176 176 178
-0.1861 -0.1196  0.4958 175 175 177
-0.1869 -0.1196  0.4959 175 175 177
-0.1877 -0.1196  0.4959 176 175 175
-0.1895 -0.1202  0.4984 177 176 176
-0.1904 -0.1203  0.4987 176 175 175
-0.1911 -0.1202  0.4984 176 175 175
-0.1919 -0.1202  0.4984 176 175 175
-0.1926 -0.1202  0.4983 176 175 175
-0.1933 -0.1202  0.4981 176 176 172
-0.1941 -0.1202  0.4981 177 177 173
-0.1949 -0.1201  0.4979 176 176 172
-0.1956 -0.1201  0.4978 176 176 172
-0.1964 -0.1201  0.4977 175 176 172
-0.1972 -0.1201  0.4977 175 176 172
-0.1980 -0.1201  0.4977 174 174 174
-0.1988 -0.1201  0.4977 174 174 174
-0.1996 -0.1201  0.4977 175 175 175
-0.2004 -0.1201  0.4977 175 175 175
-0.2012 -0.1201  0.4977 175 175 175
-0.2020 -0.1201  0.4977 175 175 175
-0.2028 -0.1201  0.4977 172 175 174
-0.2036 -0.1201  0.4977 172 175 174
-0.2043 -0.1200  0.4974 172 175 174
-0.2051 -0.1200  0.4974 172 175 174
-0.2059 -0.1200  0.4973 175 175 175
-0.2066 -0.1199  0.4971 175 175 175
-0.2074 -0.1199  0.4971 174 174 174
-0.2082 -0.1199  0.4971 175 175 175
-0.2090 -0.1199  0.4971 175 175 175
-0.2098 -0.1199  0.4971 175 175 175
-0.2107 -0.1199  0.4972 175 175 175
-0.2115 -0.1199  0.4972 175 175 175
-0.2124 -0.1200  0.4974 175 175 175
-0.2133 -0.1201  0.4978 175 175 175
-0.2143 -0.1202  0.4982 175 175 175
-0.2151 -0.1202  0.4982 175 175 175
-0.2161 -0.1203  0.4986 174 174 174
-0.2170 -0.1203  0.4988 174 174 174
-0.2178 -0.1203  0.4988 174 174 174
-0.2185 -0.1203  0.4987 174 174 174
-0.2193 -0.1203  0.4986 172 175 174
-0.2201 -0.1203  0.4986 172 175 174
-0.2208 -0.1202  0.4984 172 175 174
-0.2216 -0.1202  0.4984 172 175 174
-0.2225 -0.1202  0.4984 173 176 175
-0.2233 -0.1202  0.4984 173 176 175
-0.2241 -0.1202  0.4984 172 175 174
-0.2249 -0.1202  0.4984 173 176 175
-0.2257 -0.1202  0.4984 173 176 177
-0.2265 -0.1202  0.4984 173 176 177
-0.2273 -0.1202  0.4984 173 176 177
-0.2281 -0.1202  0.4984 172 175 176
-0.2289 -0.1202  0.4984 172 175 176
-0.2305 -0.1207  0.5002 172 175 176
-0.2313 -0.1206  0.5001 173 176 177
-0.2321 -0.1206  0.5001 174 177 178
-0.2329 -0.1206  0.5001 173 176 177
-0.2337 -0.1207  0.5002 173 176 177
-0.2345 -0.1207  0.5002 173 176 177
-0.2353 -0.1207  0.5002 173 176 177
-0.2363 -0.1207  0.5004 173 176 177
-0.2371 -0.1207  0.5004 173 176 177
-0.2379 -0.1208  0.5006 174 177 178
-0.2388 -0.1208  0.5006 174 177 178
-0.2395 -0.1207  0.5004 173 176 177
-0.2403 -0.1207  0.5004 174 177 178
-0.2411 -0.1207  0.5004 173 176 177
-0.2417 -0.1206  0.5001 173 176 177
-0.2424 -0.1206  0.4998 174 177 178
-0.2432 -0.1206  0.4998 173 176 177
-0.2438 -0.1205  0.4993 173 176 177
-0.2443 -0.1203  0.4987 174 177 178
-0.2451 -0.1203  0.4987 174 177 178
-0.2457 -0.1202  0.4982 173 176 177
-0.2463 -0.1201  0.4978 173 176 177
-0.2471 -0.1201  0.4978 174 177 178
-0.2477 -0.1200  0.4974 174 177 178
-0.2484 -0.1199  0.4972 174 177 178
-0.2492 -0.1199  0.4972 174 177 178
-0.2498 -0.1198  0.4968 174 177 178
-0.2505 -0.1198  0.4966 174 177 178
-0.2513 -0.1198  0.4966 174 177 178
-0.2520 -0.1197  0.4963 174 177 178
-0.2527 -0.1197  0.4962 174 177 178
-0.2535 -0.1197  0.4962 175 175 177
-0.2542 -0.1196  0.4959 176 176 178
-0.2550 -0.1196  0.4959 178 178 180
-0.2558 -0.1197  0.4961 176 176 178
-0.2568 -0.1197  0.4963 176 176 178
-0.2576 -0.1197  0.4963 176 176 178
-0.2585 -0.1198  0.4966 173 176 177
-0.2597 -0.1200  0.4973 174 177 178
-0.2605 -0.1200  0.4973 174 177 178
-0.2616 -0.1201  0.4979 174 177 178
 0.2271 -0.1226  0.5047 152 151 155
 0.2257 -0.1223  0.5034 154 153 157
 0.2249 -0.1223  0.5034 155 154 158
 0.2233 -0.1219  0.5018 156 155 159
 0.2216 -0.1214  0.4998 158 157 161
 0.2208 -0.1214  0.4998 158 158 162
 0.2200 -0.1214  0.4997 158 158 162
 0.2192 -0.1214  0.4997 158 158 162
 0.2184 -0.1214  0.4997 159 159 163
 0.2175 -0.1214  0.4997 158 158 162
 0.2168 -0.1214  0.4998 158 158 162
 0.2160 -0.1214  0.4999 158 158 162
 0.2152 -0.1214  0.4999 159 159 163
 0.2145 -0.1214  0.5001 159 159 163
 0.2137 -0.1214  0.5001 159 159 163
 0.2129 -0.1215  0.5002 159 159 163
 0.2121 -0.1215  0.5002 159 159 163
 0.2114 -0.1215  0.5003 158 158 162
 0.2106 -0.1215  0.5004 159 159 163
 0.2098 -0.1215  0.5004 159 159 163
 0.2091 -0.1216  0.5007 160 160 164
 0.2084 -0.1217  0.5009 158 158 162
 0.2076 -0.1217  0.5009 160 160 164
 0.2068 -0.1217  0.5011 157 160 163
 0.2061 -0.1217  0.5012 156 159 162
 0.2053 -0.1217  0.5012 156 159 162
 0.2044 -0.1217  0.5012 158 161 164
 0.2036 -0.1217  0.5012 157 160 163
 0.2028 -0.1217  0.5012 157 160 163
 0.2020 -0.1217  0.5012 157 160 163
 0.2012 -0.1217  0.5012 157 160 163
 0.2004 -0.1217  0.5012 157 160 161
 0.1996 -0.1217  0.5012 158 161 162
 0.1988 -0.1217  0.5012 158 161 162
 0.1980 -0.1217  0.5013 159 162 163
 0.1973 -0.1218  0.5014 157 160 161
 0.1960 -0.1215  0.5002 157 160 161
 0.1951 -0.1215  0.5002 157 160 161
 0.1944 -0.1215  0.5003 157 160 161
 0.1936 -0.1215  0.5003 157 160 163
 0.1928 -0.1215  0.5003 157 160 163
 0.1920 -0.1215  0.5003 157 160 163
 0.1912 -0.1215  0.5003 157 160 163
 0.1904 -0.1215  0.5004 159 159 163
 0.1896 -0.1215  0.5004 159 159 163
 0.1889 -0.1216  0.5007 159 159 163
 0.1881 -0.1216  0.5007 158 158 162
 0.1874 -0.1217  0.5009 159 159 163
 0.1866 -0.1217  0.5011 158 158 162
 0.1858 -0.1217  0.5011 159 159 161
 0.1850 -0.1217  0.5012 158 158 160
 0.1842 -0.1217  0.5012 158 158 160
 0.1834 -0.1217  0.5013 158 158 160
 0.1826 -0.1217  0.5013 158 158 160
 0.1819 -0.1218  0.5014 158 158 160
 0.1811 -0.1218  0.5016 156 159 160
 0.1803 -0.1218  0.5016 155 158 159
 0.1794 -0.1218  0.5014 156 159 160
 0.1785 -0.1217  0.5012 155 158 159
 0.1777 -0.1217  0.5012 156 159 160
 0.1768 -0.1216  0.5008 156 159 160
 0.1758 -0.1215  0.5003 156 159 160
 0.1750 -0.1215  0.5003 155 158 159
 0.1741 -0.1214  0.5001 156 159 160
 0.1732 -0.1214  0.4998 156 159 160
 0.1724 -0.1214  0.4997 156 159 160
 0.1716 -0.1214  0.4997 156 159 160
 0.1707 -0.1213  0.4996 158 158 160
 0.1699 -0.1213  0.4996 158 158 160
 0.1691 -0.1213  0.4996 158 158 160
 0.1683 -0.1213  0.4996 157 157 159
 0.1675 -0.1213  0.4996 157 157 159
 0.1667 -0.1214  0.4997 157 157 159
 0.1660 -0.1214  0.4999 157 157 159
 0.1652 -0.1214  0.4999 157 157 159
 0.1644 -0.1214  0.5001 157 157 159
 0.1637 -0.1215  0.5004 155 155 157
 0.1630 -0.1216  0.5008 157 157 159
 0.1622 -0.1216  0.5008 155 155 157
 0.1611 -0.1214  0.4998 155 155 157
 0.1603 -0.1214  0.4998 157 157 159
 0.1595 -0.1214  0.4998 155 155 157
 0.1588 -0.1215  0.5003 155 155 157
 0.1582 -0.1216  0.5007 154 154 156
 0.1575 -0.1217  0.5011 155 155 157
 0.1567 -0.1217  0.5011 155 155 157
 0.1559 -0.1217  0.5013 155 155 157
 0.1551 -0.1217  0.5013 155 155 157
 0.1543 -0.1217  0.5013 155 155 157
 0.1534 -0.1217  0.5011 155 155 157
 0.1525 -0.1216  0.5008 155 155 157
 0.1517 -0.1216  0.5008 155 155 157
 0.1509 -0.1216  0.5007 155 155 157
 0.1500 -0.1216  0.5006 155 155 157
 0.1492 -0.1216  0.5006 154 154 156
 0.1485 -0.1216  0.5007 155 155 157
 0.1476 -0.1216  0.5007 154 154 156
 0.1468 -0.1216  0.5007 153 153 155
 0.1461 -0.1216  0.5008 154 154 156
 0.1453 -0.1216  0.5008 154 154 156
 0.1444 -0.1216  0.5008 154 154 156
 0.1436 -0.1216  0.5008 153 153 155
 0.1428 -0.1216  0.5008 154 154 156
 0.1420 -0.1216  0.5008 155 155 157
 0.1412 -0.1216  0.5007 154 154 156
 0.1403 -0.1215  0.5004 154 154 156
 0.1395 -0.1215  0.5004 154 154 156
 0.1386 -0.1215  0.5002 154 154 156
 0.1377 -0.1214  0.4999 154 154 156
 0.1369 -0.1214  0.4997 155 155 155
 0.1361 -0.1214  0.4997 154 154 154
 0.1352 -0.1213  0.4994 154 154 154
 0.1344 -0.1213  0.4994 154 154 154
 0.1336 -0.1213  0.4994 153 153 153
 0.1328 -0.1213  0.4994 154 154 154
 0.1320 -0.1214  0.4997 154 154 154
 0.1313 -0.1214  0.5001 155 155 155
 0.1306 -0.1215  0.5004 153 153 153
 0.1298 -0.1215  0.5004 154 154 154
 0.1290 -0.1216  0.5007 154 154 154
 0.1282 -0.1216  0.5006 154 154 154
 0.1274 -0.1216  0.5006 154 154 154
 0.1266 -0.1215  0.5004 153 153 153
 0.1257 -0.1215  0.5002 154 154 154
 0.1248 -0.1214  0.4999 154 154 154
 0.1240 -0.1214  0.4999 154 154 154
 0.1232 -0.1214  0.4998 154 154 154
 0.1224 -0.1214  0.4998 154 154 154
 0.1216 -0.1214  0.4998 154 154 154
 0.1208 -0.1214  0.5001 153 153 153
 0.1200 -0.1214  0.5001 154 154 154
 0.1188 -0.1210  0.4984 153 153 153
 0.1180 -0.1210  0.4984 154 154 154
 0.1173 -0.1211  0.4988 153 153 153
 0.1165 -0.1211  0.4988 153 153 153
 0.1158 -0.1212  0.4992 154 154 154
 0.1150 -0.1213  0.4994 154 154 154
 0.1143 -0.1214  0.4998 154 154 154
 0.1135 -0.1214  0.4998 154 154 154
 0.1127 -0.1214  0.5001 154 154 154
 0.1120 -0.1215  0.5003 154 154 154
 0.1112 -0.1215  0.5004 154 154 154
 0.1104 -0.1215  0.5004 154 154 154
 0.1096 -0.1215  0.5004 153 153 153
 0.1088 -0.1215  0.5003 153 153 153
 0.1079 -0.1215  0.5003 154 154 154
 0.1071 -0.1215  0.5002 154 154 154
 0.1063 -0.1214  0.4999 155 154 154
 0.1054 -0.1214  0.4999 155 154 154
 0.1046 -0.1214  0.4998 155 154 154
 0.1038 -0.1214  0.4997 155 154 154
 0.1029 -0.1213  0.4996 155 154 154
 0.1021 -0.1213  0.4996 155 154 154
 0.1013 -0.1213  0.4996 153 153 153
 0.1005 -0.1213  0.4994 153 153 153
 0.0997 -0.1213  0.4994 153 153 153
 0.0989 -0.1213  0.4994 154 154 154
 0.0981 -0.1213  0.4994 154 155 151
 0.0973 -0.1213  0.4994 153 154 150
 0.0965 -0.1213  0.4994 153 154 150
 0.0957 -0.1213  0.4994 153 154 150
 0.0949 -0.1213  0.4994 153 154 150
 0.0941 -0.1214  0.4997 153 154 150
 0.0933 -0.1214  0.4999 153 154 150
 0.0926 -0.1215  0.5002 153 154 150
 0.0918 -0.1215  0.5003 153 154 150
 0.0910 -0.1215  0.5003 153 154 150
 0.0902 -0.1215  0.5004 153 153 149
 0.0894 -0.1216  0.5006 153 153 149
 0.0886 -0.1216  0.5007 154 154 150
 0.0878 -0.1216  0.5007 154 154 150
 0.0870 -0.1216  0.5007 154 154 150
 0.0862 -0.1216  0.5007 154 154 150
 0.0854 -0.1216  0.5007 154 154 150
 0.0846 -0.1216  0.5007 154 154 150
 0.0837 -0.1215  0.5004 154 154 150
 0.0829 -0.1215  0.5004 154 154 150
 0.0821 -0.1215  0.5004 153 152 152
 0.0813 -0.1215  0.5004 153 152 152
 0.0805 -0.1215  0.5003 154 153 153
 0.0797 -0.1215  0.5003 154 153 153
 0.0789 -0.1215  0.5003 154 153 153
 0.0781 -0.1215  0.5003 154 153 153
 0.0772 -0.1215  0.5002 154 154 150
 0.0764 -0.1215  0.5002 154 154 150
 0.0756 -0.1215  0.5002 154 154 150
 0.0748 -0.1214  0.5001 153 153 149
 0.0740 -0.1214  0.4999 154 154 150
 0.0732 -0.1214  0.4999 154 154 150
 0.0723 -0.1214  0.4999 154 154 150
 0.0715 -0.1214  0.4998 154 154 150
 0.0707 -0.1214  0.4998 154 154 150
 0.0699 -0.1214  0.4998 154 154 150
 0.0691 -0.1214  0.4999 154 154 150
 0.0683 -0.1214  0.4999 154 154 150
 0.0675 -0.1214  0.4999 154 154 150
 0.0667 -0.1214  0.5001 154 154 150
 0.0659 -0.1215  0.5002 154 154 150
 0.0651 -0.1215  0.5002 155 155 151
 0.0643 -0.1215  0.5003 155 155 151
 0.0635 -0.1216  0.5006 155 155 151
 0.0628 -0.1216  0.5007 155 155 151
 0.0619 -0.1216  0.5007 154 154 150
 0.0612 -0.1217  0.5009 155 155 151
 0.0604 -0.1217  0.5012 155 155 151
 0.0596 -0.1217  0.5012 155 155 151
 0.0588 -0.1217  0.5012 156 156 152
 0.0580 -0.1217  0.5012 155 155 151
 0.0569 -0.1212  0.4991 155 155 151
 0.0561 -0.1212  0.4991 155 155 151
 0.0553 -0.1212  0.4989 155 155 151
 0.0544 -0.1211  0.4987 155 155 151
 0.0536 -0.1211  0.4987 155 155 151
 0.0528 -0.1211  0.4987 156 156 152
 0.0520 -0.1211  0.4986 155 155 151
 0.0512 -0.1210  0.4984 155 155 151
 0.0504 -0.1210  0.4984 155 155 151
 0.0496 -0.1210  0.4984 155 155 151
 0.0488 -0.1210  0.4984 155 155 151
 0.0480 -0.1210  0.4984 154 155 151
 0.0472 -0.1210  0.4984 154 155 151
 0.0464 -0.1210  0.4984 154 155 151
 0.0456 -0.1210  0.4984 154 155 151
 0.0448 -0.1210  0.4984 154 154 154
 0.0439 -0.1210  0.4983 154 154 154
 0.0431 -0.1210  0.4983 155 155 151
 0.0423 -0.1210  0.4983 156 156 152
 0.0415 -0.1210  0.4983 156 156 152
 0.0407 -0.1210  0.4984 155 155 151
 0.0400 -0.1211  0.4987 155 154 154
 0.0392 -0.1212  0.4989 156 155 155
 0.0384 -0.1212  0.4989 156 155 155
 0.0376 -0.1212  0.4992 156 155 155
 0.0368 -0.1213  0.4994 156 155 155
 0.0360 -0.1214  0.4998 156 155 155
 0.0352 -0.1214  0.5001 156 156 152
 0.0344 -0.1214  0.5001 156 156 152
 0.0336 -0.1215  0.5003 158 155 152
 0.0328 -0.1215  0.5003 160 157 154
 0.0320 -0.1215  0.5003 158 155 152
 0.0312 -0.1215  0.5003 158 155 152
 0.0304 -0.1215  0.5002 158 155 152
 0.0296 -0.1215  0.5002 160 157 154
 0.0288 -0.1215  0.5002 160 157 154
 0.0280 -0.1215  0.5002 160 157 154
 0.0271 -0.1214  0.5001 158 158 154
 0.0263 -0.1214  0.5001 158 158 154
 0.0255 -0.1214  0.5001 158 158 154
 0.0247 -0.1214  0.4999 158 158 154
 0.0239 -0.1214  0.4999 158 158 154
 0.0231 -0.1214  0.4999 159 159 155
 0.0223 -0.1214  0.4999 158 158 154
 0.0215 -0.1214  0.4999 158 158 154
 0.0207 -0.1214  0.4999 158 158 154
 0.0199 -0.1214  0.4999 159 159 155
 0.0191 -0.1214  0.4997 159 159 155
 0.0182 -0.1214  0.4997 159 159 155
 0.0174 -0.1213  0.4994 159 159 155
 0.0166 -0.1213  0.4993 159 159 155
 0.0158 -0.1212  0.4992 159 159 155
 0.0150 -0.1212  0.4992 159 159 155
 0.0142 -0.1212  0.4992 159 159 155
 0.0134 -0.1212  0.4992 159 159 155
 0.0126 -0.1213  0.4993 159 159 155
 0.0118 -0.1213  0.4994 159 159 155
 0.0110 -0.1213  0.4994 159 159 155
 0.0102 -0.1213  0.4994 160 160 156
 0.0094 -0.1213  0.4994 160 159 159
 0.0086 -0.1213  0.4994 159 158 158
 0.0078 -0.1212  0.4992 160 159 159
 0.0069 -0.1212  0.4991 160 159 159
 0.0061 -0.1212  0.4989 160 159 159
 0.0053 -0.1212  0.4989 160 159 159
 0.0045 -0.1212  0.4989 160 159 159
 0.0037 -0.1211  0.4988 160 159 159
 0.0029 -0.1211  0.4988 160 159 159
 0.0021 -0.1211  0.4987 160 159 159
 0.0013 -0.1211  0.4987 160 159 159
 0.0005 -0.1211  0.4987 160 159 159
-0.0003 -0.1211  0.4987 160 159 159
-0.0011 -0.1211  0.4987 161 160 160
-0.0019 -0.1211  0.4987 160 159 159
-0.0027 -0.1211  0.4987 161 160 160
-0.0035 -0.1211  0.4988 161 160 160
-0.0043 -0.1211  0.4988 161 160 160
-0.0051 -0.1211  0.4988 161 160 162
-0.0059 -0.1211  0.4988 161 160 162
-0.0068 -0.1211  0.4987 162 161 163
-0.0076 -0.1211  0.4987 161 160 162
-0.0084 -0.1211  0.4987 162 161 163
-0.0092 -0.1211  0.4987 161 160 162
-0.0100 -0.1211  0.4987 162 161 163
-0.0108 -0.1211  0.4987 162 161 163
-0.0116 -0.1211  0.4987 161 161 163
-0.0124 -0.1211  0.4987 162 162 164
-0.0132 -0.1211  0.4987 162 162 164
-0.0140 -0.1211  0.4987 162 162 164
-0.0148 -0.1211  0.4987 162 162 164
-0.0156 -0.1211  0.4987 162 162 164
-0.0164 -0.1211  0.4987 162 162 164
-0.0172 -0.1211  0.4987 162 162 164
-0.0180 -0.1211  0.4987 164 164 166
-0.0188 -0.1211  0.4988 164 164 166
-0.0196 -0.1211  0.4988 165 165 167
-0.0205 -0.1212  0.4989 164 164 166
-0.0213 -0.1212  0.4992 164 164 166
-0.0221 -0.1213  0.4993 164 164 166
-0.0229 -0.1213  0.4994 165 165 167
-0.0237 -0.1213  0.4994 165 165 167
-0.0245 -0.1213  0.4993 165 165 167
-0.0253 -0.1212  0.4991 165 165 167
-0.0261 -0.1212  0.4991 165 165 165
-0.0269 -0.1211  0.4988 165 165 165
-0.0277 -0.1210  0.4984 166 166 166
-0.0285 -0.1210  0.4982 166 166 166
-0.0293 -0.1210  0.4982 166 166 166
-0.0301 -0.1210  0.4981 166 166 166
-0.0309 -0.1210  0.4981 166 166 166
-0.0317 -0.1210  0.4981 165 165 165
-0.0325 -0.1210  0.4982 166 166 166
-0.0333 -0.1210  0.4982 166 166 166
-0.0341 -0.1210  0.4982 167 167 167
-0.0349 -0.1210  0.4983 166 166 166
-0.0357 -0.1210  0.4982 167 167 167
-0.0365 -0.1210  0.4982 167 167 167
-0.0373 -0.1209  0.4979 167 167 167
-0.0381 -0.1209  0.4978 168 168 168
-0.0389 -0.1209  0.4977 168 168 168
-0.0397 -0.1209  0.4977 168 168 168
-0.0405 -0.1208  0.4974 168 168 168
-0.0413 -0.1208  0.4973 168 168 168
-0.0421 -0.1207  0.4972 168 168 170
-0.0429 -0.1207  0.4972 169 169 171
-0.0437 -0.1207  0.4971 169 169 171
-0.0444 -0.1207  0.4969 169 169 171
-0.0452 -0.1207  0.4969 171 171 173
-0.0461 -0.1207  0.4971 172 172 174
-0.0469 -0.1207  0.4971 172 172 174
-0.0477 -0.1207  0.4971 171 171 173
-0.0485 -0.1207  0.4972 172 172 174
-0.0493 -0.1208  0.4973 172 172 174
-0.0501 -0.1208  0.4973 172 172 174
-0.0509 -0.1208  0.4974 172 172 174
-0.0517 -0.1208  0.4976 173 173 175
-0.0525 -0.1208  0.4976 173 173 175
-0.0533 -0.1208  0.4976 173 173 175
-0.0541 -0.1208  0.4976 173 173 175
-0.0549 -0.1208  0.4976 174 174 176
-0.0557 -0.1208  0.4976 174 174 176
-0.0566 -0.1208  0.4976 175 175 177
-0.0574 -0.1208  0.4976 176 176 178
-0.0581 -0.1208  0.4974 176 176 178
-0.0589 -0.1208  0.4973 176 176 178
-0.0597 -0.1208  0.4973 176 176 178
-0.0605 -0.1207  0.4971 178 178 180
-0.0613 -0.1207  0.4968 178 178 180
-0.0620 -0.1206  0.4964 179 179 181
-0.0628 -0.1206  0.4964 179 179 181
-0.0636 -0.1206  0.4964 180 180 182
-0.0644 -0.1206  0.4964 180 180 182
-0.0652 -0.1206  0.4964 180 180 182
-0.0661 -0.1206  0.4967 181 181 183
-0.0669 -0.1206  0.4967 182 182 184
-0.0677 -0.1207  0.4969 180 183 184
-0.0686 -0.1208  0.4973 180 183 184
-0.0694 -0.1209  0.4977 181 184 185
-0.0702 -0.1209  0.4978 181 184 185
-0.0710 -0.1209  0.4978 183 186 187
-0.0719 -0.1209  0.4979 183 186 187
-0.0727 -0.1209  0.4979 183 186 187
-0.0735 -0.1209  0.4979 183 186 187
-0.0743 -0.1209  0.4979 185 188 189
-0.0751 -0.1210  0.4981 184 187 188
-0.0759 -0.1210  0.4982 184 187 188
-0.0767 -0.1210  0.4982 184 187 188
-0.0775 -0.1210  0.4982 185 188 189
-0.0783 -0.1210  0.4982 185 188 189
-0.0791 -0.1209  0.4979 185 188 189
-0.0799 -0.1209  0.4979 186 189 190
-0.0807 -0.1209  0.4977 187 190 191
-0.0814 -0.1208  0.4974 187 190 191
-0.0822 -0.1207  0.4971 188 191 192
-0.0830 -0.1207  0.4971 187 190 191
-0.0837 -0.1206  0.4964 188 191 194
-0.0844 -0.1204  0.4959 188 191 194
-0.0852 -0.1204  0.4957 190 193 196
-0.0860 -0.1204  0.4957 190 193 196
-0.0867 -0.1203  0.4956 190 193 196
-0.0875 -0.1203  0.4956 191 194 197
-0.0884 -0.1204  0.4957 192 195 198
-0.0892 -0.1204  0.4959 192 195 198
-0.0900 -0.1204  0.4959 193 196 199
-0.0908 -0.1205  0.4962 194 197 200
-0.0917 -0.1206  0.4964 194 197 200
-0.0925 -0.1206  0.4967 194 197 200
-0.0934 -0.1207  0.4969 194 197 200
-0.0942 -0.1207  0.4969 194 197 200
-0.0950 -0.1207  0.4968 193 196 199
-0.0957 -0.1206  0.4964 192 195 198
-0.0965 -0.1206  0.4964 191 194 197
-0.0973 -0.1205  0.4962 191 194 197
-0.0980 -0.1204  0.4958 192 195 198
-0.0987 -0.1203  0.4956 193 196 199
-0.0995 -0.1203  0.4956 192 198 200
-0.1003 -0.1203  0.4954 195 201 203
-0.1011 -0.1203  0.4954 193 199 201
-0.1019 -0.1203  0.4954 193 199 201
-0.1027 -0.1203  0.4954 193 199 201
-0.1035 -0.1203  0.4954 192 198 200
-0.1044 -0.1204  0.4957 192 198 200
-0.1052 -0.1204  0.4959 193 199 201
-0.1060 -0.1205  0.4961 191 197 199
-0.1068 -0.1205  0.4961 191 197 199
-0.1076 -0.1205  0.4961 190 196 198
-0.1084 -0.1204  0.4959 188 194 196
-0.1092 -0.1204  0.4959 188 191 192
-0.1100 -0.1204  0.4958 188 191 192
-0.1108 -0.1204  0.4957 186 189 190
-0.1116 -0.1204  0.4957 185 188 189
-0.1124 -0.1204  0.4957 191 194 195
-0.1132 -0.1204  0.4957 190 193 194
-0.1143 -0.1207  0.4971 188 191 192
-0.1150 -0.1207  0.4968 188 191 192
-0.1158 -0.1207  0.4968 188 191 192
-0.1166 -0.1206  0.4966 187 190 191
-0.1173 -0.1206  0.4964 188 191 192
-0.1181 -0.1206  0.4964 188 191 192
-0.1189 -0.1206  0.4964 190 193 194
-0.1198 -0.1206  0.4964 190 193 194
-0.1206 -0.1206  0.4964 190 193 194
-0.1214 -0.1206  0.4964 188 191 192
-0.1222 -0.1206  0.4966 188 191 192
-0.1230 -0.1206  0.4966 188 191 192
-0.1238 -0.1206  0.4967 188 191 192
-0.1247 -0.1207  0.4969 187 190 191
-0.1256 -0.1207  0.4972 187 190 191
-0.1264 -0.1208  0.4973 188 191 192
-0.1272 -0.1208  0.4973 188 191 192
-0.1281 -0.1208  0.4976 188 191 192
-0.1289 -0.1208  0.4976 188 191 192
-0.1297 -0.1208  0.4976 187 190 191
-0.1304 -0.1208  0.4974 187 190 191
-0.1312 -0.1208  0.4973 187 190 191
-0.1319 -0.1207  0.4971 186 189 190
-0.1327 -0.1207  0.4971 185 188 189
-0.1335 -0.1207  0.4968 185 188 187
-0.1342 -0.1206  0.4966 185 188 187
-0.1350 -0.1206  0.4966 184 187 186
-0.1358 -0.1206  0.4964 184 187 186
-0.1366 -0.1206  0.4964 183 186 185
-0.1374 -0.1205  0.4963 183 186 185
-0.1382 -0.1205  0.4963 183 186 185
-0.1389 -0.1205  0.4962 183 186 185
-0.1397 -0.1205  0.4962 183 186 185
-0.1405 -0.1205  0.4961 181 184 183
-0.1413 -0.1205  0.4961 181 184 183
-0.1421 -0.1205  0.4961 181 184 183
-0.1429 -0.1205  0.4961 181 184 183
-0.1437 -0.1204  0.4959 180 183 182
-0.1445 -0.1204  0.4959 180 183 182
-0.1453 -0.1204  0.4959 180 183 182
-0.1460 -0.1204  0.4958 180 183 182
-0.1468 -0.1204  0.4957 180 183 182
-0.1476 -0.1204  0.4957 179 182 181
-0.1483 -0.1203  0.4956 179 182 181
-0.1491 -0.1203  0.4954 179 182 181
-0.1498 -0.1203  0.4952 179 182 181
-0.1506 -0.1203  0.4952 179 182 181
-0.1514 -0.1203  0.4952 179 182 181
-0.1522 -0.1202  0.4951 179 182 181
-0.1530 -0.1202  0.4951 179 182 181
-0.1538 -0.1202  0.4951 179 182 183
-0.1546 -0.1202  0.4951 178 181 182
-0.1554 -0.1202  0.4951 178 181 182
-0.1562 -0.1202  0.4951 178 181 182
-0.1570 -0.1202  0.4951 177 180 181
-0.1578 -0.1202  0.4949 179 182 183
-0.1586 -0.1202  0.4949 177 180 181
-0.1593 -0.1202  0.4949 178 181 182
-0.1601 -0.1202  0.4949 177 180 181
-0.1609 -0.1202  0.4949 177 180 181
-0.1617 -0.1202  0.4949 179 179 181
-0.1625 -0.1202  0.4949 179 179 181
-0.1633 -0.1202  0.4949 179 179 181
-0.1642 -0.1202  0.4951 179 179 181
-0.1650 -0.1203  0.4952 179 179 181
-0.1659 -0.1203  0.4953 179 179 181
-0.1667 -0.1203  0.4953 179 179 181
-0.1674 -0.1203  0.4952 179 179 181
-0.1682 -0.1203  0.4952 179 179 181
-0.1690 -0.1203  0.4952 179 179 181
-0.1697 -0.1202  0.4949 178 178 178
-0.1705 -0.1202  0.4949 179 179 179
-0.1713 -0.1202  0.4949 179 179 179
-0.1721 -0.1202  0.4949 179 179 179
-0.1729 -0.1202  0.4949 178 178 178
-0.1737 -0.1202  0.4949 178 178 178
-0.1746 -0.1203  0.4952 176 179 178
-0.1754 -0.1203  0.4952 174 177 176
-0.1768 -0.1207  0.4969 176 179 178
-0.1776 -0.1207  0.4968 176 179 178
-0.1784 -0.1207  0.4968 176 176 176
-0.1791 -0.1206  0.4966 176 176 176
-0.1797 -0.1205  0.4961 176 176 176
-0.1804 -0.1204  0.4957 176 176 176
-0.1812 -0.1204  0.4957 178 178 178
-0.1820 -0.1203  0.4956 176 176 176
-0.1828 -0.1203  0.4956 176 176 176
-0.1836 -0.1203  0.4956 176 176 176
-0.1844 -0.1204  0.4957 175 175 175
-0.1852 -0.1204  0.4957 176 176 176
-0.1861 -0.1204  0.4958 175 175 175
-0.1869 -0.1204  0.4959 176 176 176
-0.1877 -0.1204  0.4959 177 176 176
-0.1885 -0.1204  0.4959 177 176 176
-0.1893 -0.1204  0.4958 177 176 176
-0.1901 -0.1204  0.4958 176 175 175
-0.1908 -0.1204  0.4957 176 175 175
-0.1916 -0.1203  0.4956 176 175 175
-0.1923 -0.1203  0.4954 176 175 175
-0.1931 -0.1203  0.4954 177 176 176
-0.1939 -0.1203  0.4953 177 176 176
-0.1947 -0.1203  0.4953 176 175 175
-0.1955 -0.1203  0.4953 175 176 172
-0.1963 -0.1203  0.4953 175 176 172
-0.1971 -0.1203  0.4954 174 174 174
-0.1980 -0.1203  0.4956 174 174 174
-0.1989 -0.1204  0.4958 175 175 175
-0.1997 -0.1204  0.4958 175 175 175
-0.2006 -0.1205  0.4961 175 175 175
-0.2014 -0.1205  0.4962 174 174 174
-0.2022 -0.1205  0.4962 174 174 174
-0.2030 -0.1205  0.4961 174 174 174
-0.2037 -0.1204  0.4958 175 175 175
-0.2045 -0.1204  0.4958 175 175 175
-0.2052 -0.1204  0.4957 175 175 175
-0.2059 -0.1203  0.4954 175 175 175
-0.2067 -0.1203  0.4954 175 175 175
-0.2075 -0.1203  0.4954 175 175 175
-0.2084 -0.1203  0.4956 176 176 176
-0.2092 -0.1204  0.4957 175 175 175
-0.2101 -0.1204  0.4958 176 176 176
-0.2109 -0.1204  0.4958 175 175 175
-0.2117 -0.1204  0.4959 176 176 176
-0.2127 -0.1205  0.4963 175 175 175
-0.2136 -0.1206  0.4966 175 175 175
-0.2144 -0.1206  0.4966 175 175 175
-0.2153 -0.1207  0.4968 174 174 174
-0.2161 -0.1207  0.4968 174 174 174
-0.2169 -0.1206  0.4967 174 174 174
-0.2177 -0.1206  0.4967 175 175 175
-0.2193 -0.1211  0.4986 175 175 175
-0.2201 -0.1211  0.4986 175 175 175
-0.2208 -0.1210  0.4984 175 175 175
-0.2216 -0.1210  0.4984 175 175 175
-0.2225 -0.1210  0.4984 172 175 174
-0.2233 -0.1210  0.4984 173 176 175
-0.2241 -0.1210  0.4984 172 175 174
-0.2249 -0.1210  0.4984 173 176 175
-0.2257 -0.1210  0.4984 173 176 177
-0.2265 -0.1210  0.4984 173 176 177
-0.2273 -0.1210  0.4984 173 176 177
-0.2281 -0.1210  0.4984 173 176 177
-0.2289 -0.1210  0.4984 173 176 177
-0.2297 -0.1210  0.4984 173 176 177
-0.2306 -0.1211  0.4987 173 176 177
-0.2314 -0.1211  0.4987 174 177 178
-0.2322 -0.1211  0.4987 173 176 177
-0.2331 -0.1212  0.4989 173 176 177
-0.2340 -0.1212  0.4989 173 176 177
-0.2348 -0.1212  0.4989 174 177 178
-0.2356 -0.1212  0.4991 173 176 177
-0.2364 -0.1212  0.4989 173 176 177
-0.2372 -0.1212  0.4989 173 176 177
-0.2380 -0.1212  0.4989 174 177 178
-0.2386 -0.1211  0.4986 173 176 177
-0.2394 -0.1211  0.4986 174 177 178
-0.2401 -0.1210  0.4983 174 177 178
-0.2407 -0.1209  0.4979 172 175 176
-0.2415 -0.1209  0.4979 174 177 178
-0.2421 -0.1208  0.4976 173 176 177
-0.2428 -0.1207  0.4972 173 176 177
-0.2436 -0.1207  0.4972 174 177 178
-0.2441 -0.1206  0.4967 174 177 178
-0.2447 -0.1205  0.4962 173 176 177
-0.2454 -0.1204  0.4959 174 177 178
-0.2462 -0.1204  0.4959 174 177 178
-0.2468 -0.1204  0.4957 174 177 178
-0.2475 -0.1203  0.4954 174 177 178
-0.2483 -0.1203  0.4954 176 176 178
-0.2489 -0.1202  0.4951 176 176 178
-0.2495 -0.1201  0.4947 176 176 178
-0.2503 -0.1201  0.4947 176 176 178
-0.2509 -0.1200  0.4943 176 176 178
-0.2517 -0.1200  0.4943 176 176 178
-0.2535 -0.1205  0.4962 176 176 178
-0.2542 -0.1204  0.4959 178 178 180
-0.2550 -0.1204  0.4959 176 176 178
-0.2558 -0.1205  0.4961 176 176 178
-0.2568 -0.1205  0.4963 176 176 178
-0.2576 -0.1205  0.4963 176 176 178
-0.2585 -0.1206  0.4966 175 175 177
-0.2597 -0.1208  0.4973 175 175 177
-0.2605 -0.1208  0.4973 176 176 178
-0.2616 -0.1209  0.4979 176 176 178
 0.2271 -0.1234  0.5047 153 152 156
 0.2257 -0.1231  0.5034 154 152 159
 0.2249 -0.1231  0.5034 156 154 161
 0.2233 -0.1227  0.5018 156 155 159
 0.2216 -0.1222  0.4998 158 157 161
 0.2208 -0.1222  0.4998 159 158 162
 0.2200 -0.1222  0.4997 158 157 161
 0.2192 -0.1222  0.4997 157 157 161
 0.2184 -0.1222  0.4997 158 158 162
 0.2175 -0.1222  0.4997 158 157 164
 0.2161 -0.1218  0.4982 158 157 164
 0.2153 -0.1218  0.4982 158 157 164
 0.2145 -0.1218  0.4982 159 158 165
 0.2138 -0.1219  0.4984 158 157 164
 0.2130 -0.1219  0.4984 159 158 165
 0.2122 -0.1219  0.4984 159 158 165
 0.2114 -0.1219  0.4984 159 158 165
 0.2106 -0.1219  0.4986 158 158 162
 0.2099 -0.1219  0.4988 158 158 162
 0.2091 -0.1219  0.4988 159 159 163
 0.2084 -0.1220  0.4991 159 159 163
 0.2077 -0.1221  0.4993 158 158 162
 0.2069 -0.1221  0.4993 159 159 163
 0.2061 -0.1221  0.4994 157 160 163
 0.2053 -0.1221  0.4994 156 159 162
 0.2045 -0.1221  0.4994 156 159 162
 0.2037 -0.1221  0.4993 157 160 163
 0.2028 -0.1220  0.4992 157 160 163
 0.2020 -0.1220  0.4992 157 160 163
 0.2012 -0.1220  0.4992 157 160 163
 0.2004 -0.1220  0.4992 157 160 163
 0.1996 -0.1220  0.4992 157 160 161
 0.1988 -0.1220  0.4992 158 161 162
 0.1980 -0.1221  0.4993 158 161 162
 0.1973 -0.1221  0.4996 158 161 162
 0.1965 -0.1221  0.4996 157 160 161
 0.1958 -0.1222  0.4998 157 160 161
 0.1951 -0.1223  0.5002 157 160 161
 0.1944 -0.1223  0.5003 157 160 161
 0.1936 -0.1223  0.5003 157 160 163
 0.1928 -0.1223  0.5003 157 160 163
 0.1920 -0.1223  0.5003 157 160 163
 0.1912 -0.1223  0.5003 157 160 163
 0.1904 -0.1223  0.5004 157 160 163
 0.1896 -0.1223  0.5004 157 160 163
 0.1889 -0.1224  0.5007 159 159 163
 0.1881 -0.1224  0.5007 158 158 162
 0.1868 -0.1221  0.4994 159 159 163
 0.1860 -0.1221  0.4994 158 158 162
 0.1852 -0.1221  0.4994 159 159 161
 0.1843 -0.1220  0.4992 158 158 160
 0.1835 -0.1220  0.4992 156 159 160
 0.1827 -0.1220  0.4992 155 158 159
 0.1819 -0.1220  0.4992 155 158 159
 0.1811 -0.1220  0.4992 156 159 160
 0.1803 -0.1220  0.4992 156 159 160
 0.1794 -0.1220  0.4992 155 158 159
 0.1786 -0.1220  0.4992 156 159 160
 0.1778 -0.1220  0.4992 155 158 159
 0.1770 -0.1220  0.4992 156 159 160
 0.1761 -0.1220  0.4989 156 159 160
 0.1752 -0.1219  0.4987 156 159 160
 0.1744 -0.1219  0.4987 156 159 160
 0.1735 -0.1219  0.4984 156 159 160
 0.1726 -0.1218  0.4982 156 159 160
 0.1718 -0.1218  0.4982 156 159 160
 0.1710 -0.1218  0.4981 156 159 160
 0.1702 -0.1217  0.4979 156 159 160
 0.1693 -0.1217  0.4979 156 159 160
 0.1685 -0.1217  0.4979 157 157 159
 0.1677 -0.1217  0.4979 157 157 159
 0.1669 -0.1217  0.4979 155 155 157
 0.1662 -0.1218  0.4981 157 157 159
 0.1654 -0.1218  0.4982 157 157 159
 0.1646 -0.1218  0.4982 157 157 159
 0.1639 -0.1219  0.4984 157 157 159
 0.1632 -0.1219  0.4987 157 157 159
 0.1624 -0.1219  0.4987 157 157 159
 0.1616 -0.1220  0.4989 155 155 157
 0.1609 -0.1221  0.4993 155 155 157
 0.1603 -0.1222  0.4998 157 157 159
 0.1595 -0.1222  0.4998 155 155 157
 0.1588 -0.1223  0.5003 155 155 157
 0.1582 -0.1224  0.5007 154 154 156
 0.1575 -0.1225  0.5011 154 154 156
 0.1567 -0.1225  0.5011 154 154 156
 0.1559 -0.1226  0.5013 155 155 157
 0.1551 -0.1226  0.5013 155 155 157
 0.1543 -0.1226  0.5013 155 155 157
 0.1534 -0.1225  0.5011 155 155 157
 0.1525 -0.1224  0.5008 155 155 157
 0.1517 -0.1224  0.5008 155 155 157
 0.1502 -0.1219  0.4986 155 155 157
 0.1494 -0.1219  0.4986 155 155 157
 0.1487 -0.1219  0.4987 155 155 157
 0.1479 -0.1220  0.4989 155 155 157
 0.1471 -0.1220  0.4989 154 154 156
 0.1464 -0.1220  0.4992 153 153 155
 0.1457 -0.1221  0.4994 154 154 156
 0.1449 -0.1222  0.4997 154 154 156
 0.1441 -0.1222  0.4997 153 153 155
 0.1433 -0.1222  0.4997 153 153 155
 0.1425 -0.1222  0.4997 154 154 156
 0.1417 -0.1221  0.4996 154 154 156
 0.1408 -0.1221  0.4994 154 154 156
 0.1400 -0.1221  0.4993 154 154 156
 0.1392 -0.1221  0.4993 154 154 156
 0.1383 -0.1220  0.4992 154 154 156
 0.1374 -0.1219  0.4988 155 155 157
 0.1365 -0.1219  0.4984 155 155 155
 0.1357 -0.1219  0.4984 154 154 154
 0.1348 -0.1218  0.4982 154 154 154
 0.1340 -0.1218  0.4982 154 154 154
 0.1332 -0.1218  0.4982 154 154 154
 0.1324 -0.1218  0.4982 154 154 154
 0.1316 -0.1218  0.4982 154 154 154
 0.1309 -0.1219  0.4984 154 154 154
 0.1301 -0.1219  0.4986 153 153 153
 0.1293 -0.1219  0.4986 154 154 154
 0.1285 -0.1219  0.4987 154 154 154
 0.1277 -0.1219  0.4986 154 154 154
 0.1269 -0.1219  0.4986 154 154 154
 0.1260 -0.1218  0.4983 154 154 154
 0.1252 -0.1218  0.4982 153 153 153
 0.1243 -0.1217  0.4978 154 154 154
 0.1235 -0.1217  0.4978 154 154 154
 0.1227 -0.1217  0.4978 154 154 154
 0.1218 -0.1217  0.4977 154 154 154
 0.1210 -0.1217  0.4977 154 154 154
 0.1203 -0.1217  0.4979 153 153 153
 0.1195 -0.1217  0.4979 154 154 154
 0.1188 -0.1218  0.4982 154 153 153
 0.1180 -0.1219  0.4984 155 154 154
 0.1173 -0.1219  0.4988 154 153 153
 0.1165 -0.1219  0.4988 154 153 153
 0.1158 -0.1220  0.4992 155 154 154
 0.1150 -0.1221  0.4994 155 154 154
 0.1143 -0.1222  0.4998 155 154 154
 0.1135 -0.1222  0.4998 155 154 154
 0.1127 -0.1222  0.5001 155 154 154
 0.1120 -0.1223  0.5003 154 153 153
 0.1112 -0.1223  0.5004 155 154 154
 0.1104 -0.1223  0.5004 155 154 154
